800	800	800	800	800	800	800	799.98	799.9	799.65	799.14	798.26	796.99	795.39	793.56	791.61	789.62	787.62	785.63	783.64	781.64	779.65	777.66	775.66	773.66	771.66	769.66	767.65	765.64	763.6	761.52	759.37	757.1	754.63	751.86	748.67	744.91	740.51	735.47	729.88	723.89	717.62	711.15	704.51	697.72	690.79	683.74	676.61	669.42	662.21	654.99	647.77	640.56	633.36	626.17	618.98	611.81	604.64	597.47	590.3	583.11	575.88	568.59	561.17	553.6	545.84	537.88	529.76	521.54	513.29	505.08	496.99	489.04	481.23	473.53	465.91	458.32	450.73	443.15	435.57	428.02	420.54	413.13	405.84	398.68	391.66	384.79	378.06	371.47	364.99	358.61	352.33	346.13	340.02	333.96	327.94	321.94	315.97	310.03	304.14	298.3	292.53	286.81	281.14	275.51	269.92	264.36	258.82	253.31	247.83	242.36	236.9	231.46	226.03	220.62	215.23	209.86	204.51	199.19	193.92	188.71	183.59	178.59	173.72	168.98	164.36	159.84	155.4	151.03	146.71	142.44	138.21	134.02	129.85	125.71	121.6	117.52	113.49	109.53	105.71	102.07	98.643	95.418	92.354	89.395	86.493	83.613	80.739	77.864	74.984	72.099	69.205	66.302	63.394	60.523	57.783	55.314	53.27	51.759	50.779	50.218	49.908	49.699	49.485	49.218	48.892	48.515	48.093	47.633	47.142	46.622	46.078	45.512	44.93	44.335	43.732	43.122	42.508	41.894	41.281	40.674	40.078	39.498	38.941	38.409	37.904	37.427	36.975	36.54	36.114	35.688	35.252	34.8	34.324	33.821	33.288	32.723	32.128	31.5	30.841	30.153	29.437	28.696	27.932	27.148	26.346	25.527	24.699	23.867	23.043	22.236	21.456	20.709	19.998	19.322	18.68	18.071	17.495	16.952	16.444	15.972	15.534	15.127	14.746	14.383	14.032	13.689	13.354	13.033	12.74	12.491	12.306	12.204	12.197	12.289	12.476	12.742	13.07	13.445	13.855	14.294	14.76	15.25	15.765	16.305	16.872	17.465	18.086	18.735	19.412	20.117	20.85	21.61	22.398	23.215	24.059	24.93	25.828	26.753	27.702	28.676	29.675	30.699	31.749	32.827	33.936	35.076	36.253	37.47	38.729	40.033	41.384	42.789	44.273	45.961	48.043	50.776	54.405	59.032	64.559	70.747	77.385	84.36	91.736	99.823	109.11	120.14	133.43	149.24	167.4	187.22	207.82	228.34	248.2	267.19	285.34	302.68	319.05	334.26	348.31	361.42	374.04	386.63	398.24	409.27	418.69	426.38	432.88	438.65
800	800	800	800	800	800	800	799.97	799.86	799.57	798.99	798.03	796.68	795.02	793.16	791.19	789.2	787.2	785.2	783.2	781.21	779.21	777.21	775.22	773.21	771.21	769.21	767.2	765.18	763.15	761.07	758.91	756.61	754.1	751.24	747.92	744.02	739.47	734.31	728.66	722.66	716.42	710	703.42	696.67	689.77	682.74	675.61	668.44	661.23	654.02	646.8	639.58	632.37	625.17	617.97	610.78	603.59	596.42	589.24	582.04	574.8	567.49	560.07	552.49	544.74	536.82	528.75	520.59	512.4	504.24	496.15	488.17	480.31	472.56	464.88	457.25	449.63	442.02	434.42	426.87	419.39	412	404.73	397.6	390.62	383.78	377.09	370.52	364.07	357.71	351.45	345.28	339.18	333.13	327.13	321.15	315.2	309.27	303.39	297.56	291.78	286.05	280.37	274.72	269.11	263.54	258	252.5	247.02	241.57	236.13	230.71	225.31	219.92	214.54	209.19	203.85	198.54	193.27	188.07	182.96	177.97	173.13	168.43	163.86	159.38	154.99	150.65	146.35	142.1	137.87	133.67	129.49	125.33	121.2	117.09	113.04	109.07	105.26	101.63	98.232	95.032	91.986	89.037	86.137	83.255	80.375	77.492	74.604	71.709	68.807	65.896	62.985	60.124	57.413	54.993	53.015	51.572	50.641	50.095	49.765	49.504	49.219	48.872	48.466	48.01	47.514	46.984	46.424	45.838	45.23	44.603	43.964	43.315	42.66	42.002	41.342	40.681	40.023	39.371	38.729	38.104	37.5	36.921	36.372	35.852	35.36	34.889	34.432	33.978	33.518	33.043	32.548	32.028	31.48	30.904	30.297	29.66	28.992	28.295	27.571	26.822	26.051	25.259	24.449	23.622	22.784	21.941	21.103	20.28	19.485	18.724	18.001	17.316	16.669	16.057	15.48	14.939	14.438	13.979	13.562	13.184	12.838	12.518	12.213	11.918	11.631	11.354	11.097	10.875	10.709	10.62	10.627	10.736	10.946	11.242	11.604	12.015	12.461	12.934	13.431	13.953	14.498	15.068	15.663	16.284	16.931	17.606	18.307	19.036	19.792	20.576	21.388	22.228	23.096	23.992	24.914	25.863	26.837	27.836	28.861	29.912	30.991	32.1	33.239	34.414	35.625	36.877	38.171	39.509	40.894	42.333	43.848	45.56	47.652	50.371	53.953	58.498	63.906	69.932	76.336	82.96	89.85	97.337	105.97	116.39	129.19	144.65	162.53	182.11	202.52	222.86	242.54	261.39	279.49	296.91	313.56	329.31	344.1	358.07	371.52	384.82	396.94	408.28	417.87	425.68	432.32	438.26
800	800	800	800	800	800	800	799.96	799.82	799.48	798.82	797.78	796.36	794.65	792.75	790.78	788.78	786.78	784.78	782.78	780.79	778.79	776.79	774.79	772.78	770.78	768.77	766.76	764.74	762.71	760.63	758.47	756.16	753.61	750.67	747.22	743.16	738.45	733.17	727.45	721.43	715.22	708.85	702.33	695.63	688.76	681.76	674.65	667.48	660.28	653.06	645.83	638.6	631.38	624.15	616.94	609.73	602.53	595.34	588.15	580.95	573.7	566.38	558.94	551.36	543.63	535.74	527.73	519.63	511.49	503.37	495.3	487.31	479.42	471.61	463.88	456.2	448.54	440.89	433.27	425.7	418.21	410.83	403.59	396.49	389.55	382.76	376.11	369.59	363.17	356.86	350.62	344.46	338.37	332.33	326.33	320.36	314.41	308.5	302.63	296.8	291.01	285.27	279.57	273.91	268.28	262.7	257.16	251.66	246.2	240.76	235.35	229.96	224.58	219.21	213.86	208.52	203.2	197.9	192.64	187.44	182.34	177.37	172.56	167.9	163.37	158.93	154.57	150.26	145.99	141.74	137.52	133.32	129.13	124.96	120.81	116.68	112.61	108.63	104.82	101.21	97.84	94.67	91.649	88.718	85.828	82.948	80.068	77.183	74.292	71.395	68.491	65.581	62.679	59.838	57.162	54.791	52.865	51.462	50.543	49.976	49.597	49.267	48.903	48.479	47.999	47.474	46.912	46.318	45.697	45.051	44.384	43.702	43.009	42.31	41.608	40.904	40.198	39.493	38.79	38.093	37.406	36.735	36.084	35.459	34.864	34.299	33.764	33.255	32.764	32.281	31.796	31.3	30.787	30.25	29.689	29.1	28.483	27.836	27.16	26.454	25.721	24.963	24.182	23.381	22.561	21.724	20.875	20.019	19.166	18.327	17.514	16.736	15.999	15.303	14.646	14.028	13.447	12.906	12.409	11.959	11.558	11.203	10.889	10.606	10.345	10.098	9.8609	9.6331	9.4203	9.2343	9.0943	9.0234	9.0433	9.1684	9.3997	9.7246	10.122	10.57	11.054	11.564	12.097	12.652	13.229	13.83	14.455	15.104	15.777	16.477	17.201	17.953	18.731	19.537	20.372	21.236	22.127	23.046	23.992	24.965	25.963	26.988	28.04	29.119	30.228	31.367	32.541	33.75	34.997	36.286	37.616	38.991	40.412	41.887	43.433	45.158	47.236	49.902	53.392	57.815	63.083	68.952	75.157	81.505	88.036	95.092	103.25	113.2	125.57	140.6	158.05	177.25	197.35	217.48	237.05	255.89	274.06	291.63	308.56	324.74	340.12	354.77	368.93	382.88	395.48	407.16	416.95	424.92	431.73	437.85
800	800	800	800	800	800	799.99	799.94	799.77	799.37	798.64	797.51	796.02	794.26	792.35	790.37	788.37	786.37	784.37	782.37	780.38	778.38	776.38	774.37	772.37	770.36	768.35	766.34	764.32	762.29	760.21	758.06	755.75	753.16	750.14	746.55	742.32	737.45	732.05	726.26	720.23	714.04	707.72	701.24	694.59	687.77	680.8	673.71	666.55	659.35	652.12	644.88	637.63	630.39	623.14	615.91	608.68	601.47	594.27	587.07	579.86	572.61	565.27	557.83	550.25	542.53	534.67	526.7	518.65	510.57	502.48	494.43	486.44	478.52	470.67	462.89	455.15	447.44	439.75	432.1	424.5	417	409.63	402.41	395.35	388.46	381.73	375.14	368.67	362.3	356.01	349.81	343.66	337.58	331.54	325.53	319.56	313.62	307.71	301.84	296.02	290.23	284.48	278.77	273.09	267.45	261.86	256.31	250.82	245.37	239.96	234.58	229.21	223.86	218.52	213.19	207.87	202.57	197.28	192.03	186.85	181.77	176.82	172.03	167.4	162.9	158.49	154.16	149.87	145.61	141.38	137.17	132.98	128.79	124.62	120.45	116.31	112.22	108.24	104.43	100.84	97.491	94.351	91.357	88.445	85.565	82.691	79.813	76.929	74.038	71.141	68.239	65.333	62.443	59.623	56.98	54.649	52.761	51.375	50.445	49.837	49.394	48.99	48.55	48.055	47.509	46.922	46.3	45.649	44.97	44.269	43.548	42.813	42.07	41.323	40.574	39.825	39.075	38.325	37.578	36.837	36.105	35.389	34.692	34.021	33.378	32.767	32.189	31.639	31.112	30.598	30.088	29.571	29.039	28.487	27.912	27.312	26.685	26.029	25.343	24.628	23.886	23.117	22.326	21.514	20.682	19.834	18.971	18.101	17.231	16.375	15.544	14.748	13.994	13.283	12.614	11.985	11.397	10.853	10.357	9.9144	9.5267	9.1917	8.9027	8.651	8.4276	8.2252	8.0386	7.8651	7.7054	7.5659	7.4615	7.4145	7.4502	7.5893	7.8395	8.1918	8.6247	9.1138	9.6396	10.19	10.762	11.353	11.965	12.598	13.252	13.929	14.627	15.349	16.096	16.868	17.668	18.495	19.352	20.237	21.151	22.092	23.061	24.057	25.08	26.131	27.21	28.319	29.459	30.632	31.84	33.085	34.37	35.697	37.065	38.478	39.939	41.455	43.036	44.769	46.815	49.397	52.752	57.013	62.118	67.835	73.886	80.058	86.396	93.235	101.15	110.8	122.8	137.36	154.25	172.92	192.65	212.58	232.15	251.09	269.43	287.18	304.3	320.72	336.43	351.53	366.22	380.7	393.77	405.81	415.86	424.04	431.06	437.41
800	800	800	800	800	800	799.99	799.92	799.71	799.25	798.44	797.23	795.68	793.88	791.95	789.96	787.97	785.97	783.97	781.98	779.98	777.98	775.98	773.97	771.97	769.96	767.95	765.93	763.91	761.88	759.81	757.67	755.35	752.73	749.63	745.91	741.51	736.49	730.97	725.13	719.08	712.91	706.61	700.18	693.57	686.8	679.86	672.8	665.65	658.44	651.2	643.94	636.67	629.4	622.13	614.88	607.63	600.4	593.19	585.99	578.77	571.52	564.18	556.74	549.17	541.45	533.62	525.68	517.67	509.62	501.57	493.53	485.54	477.6	469.72	461.88	454.09	446.32	438.59	430.89	423.27	415.75	408.38	401.19	394.19	387.36	380.7	374.17	367.75	361.43	355.18	348.99	342.86	336.78	330.74	324.73	318.76	312.82	306.92	301.05	295.23	289.44	283.69	277.97	272.28	266.63	261.03	255.49	250.01	244.58	239.19	233.84	228.5	223.18	217.86	212.55	207.25	201.97	196.71	191.48	186.32	181.26	176.33	171.56	166.94	162.45	158.06	153.74	149.47	145.23	141.02	136.83	132.64	128.47	124.3	120.13	115.99	111.89	107.91	104.11	100.54	97.214	94.098	91.124	88.225	85.353	82.482	79.606	76.722	73.831	70.935	68.035	65.133	62.251	59.448	56.828	54.525	52.658	51.275	50.322	49.666	49.159	48.683	48.175	47.615	47.009	46.365	45.689	44.983	44.25	43.495	42.722	41.938	41.146	40.352	39.558	38.763	37.969	37.176	36.385	35.599	34.823	34.062	33.32	32.603	31.914	31.257	30.633	30.041	29.477	28.931	28.394	27.855	27.305	26.739	26.151	25.539	24.902	24.236	23.542	22.817	22.065	21.286	20.483	19.658	18.813	17.951	17.073	16.186	15.299	14.425	13.575	12.76	11.988	11.259	10.574	9.9317	9.3347	8.7877	8.2969	7.8669	7.4979	7.1855	6.922	6.6989	6.5092	6.3473	6.209	6.0899	5.9865	5.8987	5.835	5.8154	5.8668	6.0163	6.2801	6.6558	7.1232	7.6549	8.2266	8.8228	9.4364	10.066	10.713	11.378	12.061	12.762	13.484	14.226	14.992	15.783	16.602	17.449	18.325	19.231	20.165	21.128	22.119	23.139	24.187	25.265	26.373	27.512	28.685	29.892	31.137	32.421	33.744	35.11	36.518	37.973	39.479	41.042	42.664	44.409	46.42	48.904	52.101	56.172	61.095	66.663	72.6	78.688	84.982	91.801	99.68	109.22	120.96	135.06	151.34	169.42	188.71	208.45	228.04	247.13	265.64	283.5	300.67	317.13	332.94	348.27	363.33	378.24	391.74	404.11	414.37	422.65	429.71	436.06
800	800	800	800	800	800	799.98	799.89	799.64	799.11	798.22	796.94	795.33	793.5	791.56	789.57	787.58	785.58	783.59	781.59	779.6	777.6	775.59	773.59	771.58	769.57	767.56	765.54	763.52	761.49	759.43	757.29	754.96	752.3	749.11	745.27	740.73	735.58	729.97	724.07	718.01	711.84	705.56	699.15	692.58	685.84	678.94	671.9	664.76	657.55	650.3	643.01	635.72	628.42	621.13	613.84	606.58	599.34	592.12	584.91	577.69	570.44	563.11	555.67	548.1	540.4	532.58	524.66	516.67	508.65	500.63	492.6	484.61	476.64	468.72	460.83	452.98	445.16	437.38	429.65	422	414.48	407.13	399.97	393.02	386.27	379.67	373.21	366.84	360.56	354.34	348.17	342.05	335.97	329.93	323.93	317.95	312.02	306.12	300.26	294.45	288.67	282.92	277.21	271.52	265.87	260.27	254.74	249.27	243.86	238.5	233.17	227.86	222.55	217.26	211.97	206.69	201.42	196.19	190.99	185.87	180.83	175.92	171.15	166.53	162.04	157.64	153.33	149.07	144.85	140.66	136.48	132.32	128.16	124.01	119.86	115.72	111.64	107.68	103.89	100.34	97.034	93.931	90.963	88.066	85.194	82.321	79.442	76.557	73.666	70.769	67.868	64.966	62.087	59.292	56.684	54.394	52.536	51.147	50.167	49.464	48.898	48.358	47.787	47.17	46.509	45.811	45.082	44.323	43.539	42.732	41.91	41.076	40.238	39.397	38.557	37.718	36.88	36.042	35.208	34.379	33.559	32.754	31.967	31.204	30.469	29.765	29.096	28.461	27.858	27.279	26.714	26.153	25.586	25.005	24.404	23.782	23.134	22.459	21.755	21.022	20.259	19.468	18.653	17.814	16.955	16.076	15.181	14.275	13.369	12.475	11.607	10.775	9.9857	9.2422	8.5444	7.8944	7.2969	6.7588	6.2866	5.8828	5.544	5.2623	5.028	4.8333	4.6738	4.5473	4.4518	4.3827	4.3328	4.296	4.2739	4.2817	4.3464	4.5001	4.7682	5.1569	5.6506	6.2202	6.8366	7.4786	8.1352	8.8035	9.4842	10.178	10.886	11.609	12.349	13.108	13.89	14.697	15.532	16.396	17.29	18.214	19.168	20.152	21.165	22.209	23.283	24.389	25.527	26.699	27.907	29.151	30.433	31.755	33.119	34.525	35.976	37.477	39.034	40.65	42.323	44.088	46.07	48.456	51.489	55.359	60.091	65.516	71.37	77.435	83.781	90.7	98.686	108.26	119.88	133.63	149.38	166.87	185.68	205.13	224.63	243.79	262.37	280.24	297.35	313.73	329.52	344.96	360.25	375.5	389.37	402	412.37	420.58	427.41	433.44
800	800	800	800	800	800	799.97	799.86	799.56	798.97	798	796.65	794.99	793.13	791.18	789.19	787.2	785.21	783.22	781.23	779.23	777.23	775.23	773.22	771.21	769.2	767.19	765.17	763.14	761.1	759.04	756.89	754.54	751.83	748.57	744.62	739.97	734.72	729.05	723.12	717.05	710.87	704.59	698.19	691.64	684.92	678.05	671.04	663.91	656.69	649.42	642.11	634.78	627.45	620.12	612.81	605.53	598.27	591.05	583.84	576.63	569.38	562.06	554.63	547.06	539.37	531.55	523.64	515.68	507.67	499.66	491.63	483.62	475.62	467.65	459.7	451.8	443.94	436.13	428.38	420.73	413.22	405.9	398.79	391.9	385.21	378.67	372.26	365.94	359.68	353.49	347.33	341.22	335.15	329.12	323.11	317.14	311.21	305.33	299.48	293.68	287.93	282.2	276.51	270.84	265.21	259.63	254.11	248.65	243.26	237.92	232.61	227.31	222.03	216.74	211.46	206.19	200.95	195.74	190.58	185.49	180.48	175.58	170.8	166.16	161.64	157.23	152.91	148.67	144.47	140.3	136.15	132.02	127.88	123.75	119.63	115.52	111.47	107.54	103.78	100.26	96.962	93.857	90.88	87.971	85.087	82.206	79.321	76.432	73.538	70.638	67.735	64.83	61.948	59.151	56.543	54.254	52.391	50.99	49.983	49.239	48.62	48.025	47.398	46.725	46.012	45.263	44.482	43.672	42.837	41.982	41.111	40.23	39.344	38.458	37.572	36.688	35.805	34.924	34.046	33.173	32.31	31.461	30.63	29.822	29.041	28.291	27.576	26.898	26.255	25.642	25.049	24.465	23.88	23.284	22.672	22.038	21.381	20.697	19.985	19.242	18.468	17.666	16.837	15.984	15.108	14.21	13.294	12.367	11.439	10.526	9.6421	8.7997	8.0058	7.2625	6.5706	5.9331	5.3567	4.8494	4.4172	4.0595	3.768	3.5304	3.3345	3.1731	3.0443	2.9492	2.8888	2.859	2.851	2.8545	2.8654	2.8938	2.9645	3.1126	3.3708	3.7555	4.2584	4.8518	5.5022	6.1827	6.8768	7.5784	8.2873	9.0046	9.7317	10.471	11.224	11.996	12.79	13.609	14.457	15.335	16.245	17.186	18.158	19.162	20.198	21.267	22.369	23.504	24.675	25.881	27.124	28.406	29.727	31.089	32.494	33.943	35.442	36.994	38.607	40.282	42.012	43.807	45.772	48.072	50.948	54.62	59.162	64.449	70.239	76.314	82.749	89.81	97.955	107.65	119.25	132.79	148.13	165.07	183.31	202.3	221.52	240.55	259.09	276.91	293.96	310.28	326.07	341.6	357.09	372.59	386.76	399.52	409.8	417.62	423.76	428.98
800	800	800	800	800	800	799.96	799.82	799.47	798.81	797.77	796.35	794.65	792.78	790.82	788.83	786.85	784.86	782.87	780.87	778.87	776.87	774.87	772.86	770.85	768.84	766.82	764.8	762.77	760.72	758.64	756.46	754.08	751.31	747.98	743.96	739.23	733.93	728.23	722.28	716.19	710.01	703.72	697.3	690.75	684.05	677.2	670.2	663.08	655.86	648.57	641.23	633.87	626.5	619.14	611.8	604.49	597.23	590	582.8	575.6	568.37	561.05	553.62	546.06	538.36	530.55	522.65	514.68	506.68	498.65	490.61	482.56	474.51	466.48	458.49	450.55	442.66	434.84	427.11	419.49	412.03	404.75	397.69	390.85	384.2	377.71	371.33	365.04	358.8	352.62	346.48	340.38	334.32	328.29	322.3	316.34	310.43	304.56	298.74	292.97	287.25	281.56	275.91	270.28	264.68	259.13	253.64	248.2	242.83	237.5	232.19	226.9	221.62	216.33	211.06	205.8	200.57	195.38	190.24	185.18	180.18	175.28	170.49	165.81	161.26	156.83	152.5	148.26	144.08	139.95	135.84	131.73	127.63	123.53	119.44	115.37	111.37	107.49	103.78	100.28	96.985	93.869	90.869	87.936	85.031	82.135	79.242	76.346	73.448	70.545	67.637	64.728	61.837	59.032	56.414	54.112	52.236	50.816	49.782	49	48.336	47.691	47.01	46.286	45.522	44.722	43.891	43.032	42.148	41.244	40.325	39.397	38.465	37.533	36.602	35.673	34.746	33.82	32.898	31.983	31.076	30.183	29.308	28.455	27.629	26.833	26.073	25.351	24.668	24.019	23.397	22.79	22.187	21.577	20.953	20.31	19.643	18.951	18.23	17.478	16.695	15.881	15.039	14.17	13.274	12.355	11.415	10.464	9.5158	8.5889	7.7019	6.8687	6.0959	5.3835	4.7311	4.1411	3.6199	3.1749	2.8097	2.52	2.2928	2.1122	1.9647	1.8434	1.7478	1.6815	1.6471	1.642	1.6577	1.6831	1.7112	1.7477	1.8138	1.9436	2.1745	2.5316	3.0161	3.6056	4.2661	4.9659	5.6826	6.4055	7.1324	7.8642	8.6026	9.3505	10.111	10.89	11.69	12.517	13.374	14.264	15.186	16.142	17.133	18.157	19.217	20.312	21.443	22.61	23.814	25.056	26.336	27.657	29.018	30.422	31.87	33.367	34.917	36.527	38.201	39.939	41.733	43.567	45.527	47.759	50.495	53.98	58.335	63.487	69.215	75.307	81.827	89.016	97.297	107.1	118.72	132.1	147.08	163.47	181.06	199.42	218.14	236.86	255.25	273.05	290.16	306.62	322.57	338.29	354	369.7	384.05	396.77	406.71	413.8	418.81	422.69
800	800	800	800	800	800	799.95	799.78	799.38	798.66	797.55	796.07	794.33	792.44	790.48	788.5	786.51	784.52	782.53	780.54	778.54	776.54	774.53	772.52	770.51	768.5	766.48	764.45	762.4	760.33	758.22	756	753.56	750.73	747.34	743.27	738.51	733.2	727.49	721.54	715.45	709.25	702.94	696.51	689.95	683.24	676.4	669.41	662.29	655.06	647.76	640.4	633	625.6	618.21	610.84	603.52	596.25	589.03	581.85	574.66	567.43	560.12	552.7	545.13	537.42	529.6	521.68	513.7	505.68	497.62	489.53	481.42	473.31	465.23	457.2	449.23	441.35	433.57	425.89	418.34	410.94	403.72	396.71	389.91	383.28	376.81	370.44	364.15	357.92	351.75	345.62	339.54	333.49	327.48	321.5	315.57	309.68	303.84	298.06	292.33	286.66	281.03	275.42	269.84	264.3	258.79	253.33	247.92	242.56	237.23	231.92	226.63	221.33	216.04	210.76	205.49	200.26	195.08	189.96	184.9	179.92	175.01	170.19	165.48	160.89	156.43	152.09	147.86	143.71	139.61	135.54	131.47	127.41	123.35	119.3	115.28	111.33	107.5	103.84	100.37	97.079	93.944	90.916	87.952	85.022	82.108	79.203	76.301	73.398	70.492	67.581	64.667	61.767	58.948	56.312	53.989	52.089	50.644	49.579	48.761	48.053	47.361	46.63	45.854	45.04	44.19	43.31	42.402	41.471	40.52	39.554	38.58	37.602	36.624	35.647	34.673	33.701	32.731	31.765	30.806	29.856	28.92	28.001	27.103	26.232	25.39	24.585	23.819	23.095	22.41	21.758	21.128	20.507	19.883	19.248	18.595	17.92	17.219	16.49	15.73	14.938	14.114	13.259	12.374	11.459	10.517	9.5536	8.5821	7.623	6.7007	5.837	5.0467	4.3341	3.6954	3.1269	2.6275	2.2002	1.8489	1.5734	1.3656	1.2104	1.0912	0.99512	0.91597	0.85394	0.8128	0.79567	0.80123	0.82298	0.85185	0.88108	0.91327	0.96502	1.0662	1.2536	1.5579	1.9903	2.538	3.1717	3.8588	4.5728	5.2977	6.0278	6.7619	7.5016	8.2497	9.0104	9.7887	10.59	11.42	12.281	13.178	14.111	15.082	16.09	17.136	18.22	19.343	20.504	21.704	22.943	24.222	25.542	26.902	28.305	29.753	31.249	32.798	34.406	36.077	37.817	39.622	41.481	43.363	45.331	47.515	50.133	53.444	57.616	62.624	68.28	74.374	80.948	88.212	96.547	106.36	117.89	131.05	145.63	161.44	178.29	195.89	213.97	232.25	250.46	268.32	285.7	302.53	318.9	335.01	351.02	366.9	381.34	393.88	403.34	409.52	413.21	415.57
800	800	800	800	800	799.99	799.93	799.74	799.3	798.51	797.33	795.81	794.04	792.13	790.16	788.18	786.2	784.21	782.22	780.22	778.22	776.21	774.21	772.2	770.18	768.17	766.14	764.1	762.04	759.94	757.78	755.5	752.99	750.09	746.65	742.55	737.8	732.5	726.82	720.89	714.79	708.58	702.25	695.8	689.22	682.51	675.66	668.67	661.56	654.33	647.01	639.63	632.22	624.79	617.38	610	602.67	595.41	588.2	581.02	573.84	566.62	559.31	551.87	544.29	536.56	528.72	520.77	512.76	504.69	496.56	488.4	480.21	472.03	463.9	455.84	447.88	440.04	432.33	424.74	417.29	409.98	402.84	395.88	389.09	382.46	375.96	369.57	363.26	357.03	350.86	344.75	338.69	332.67	326.69	320.75	314.85	309	303.2	297.47	291.8	286.18	280.61	275.06	269.54	264.05	258.59	253.16	247.77	242.42	237.08	231.77	226.46	221.15	215.84	210.55	205.27	200.03	194.84	189.71	184.65	179.66	174.74	169.9	165.16	160.53	156.05	151.7	147.48	143.36	139.3	135.27	131.25	127.23	123.21	119.2	115.24	111.34	107.57	103.95	100.5	97.211	94.058	91.001	88.008	85.053	82.123	79.207	76.299	73.394	70.487	67.575	64.658	61.75	58.918	56.261	53.91	51.977	50.495	49.393	48.533	47.779	47.039	46.258	45.432	44.568	43.669	42.741	41.785	40.807	39.809	38.798	37.778	36.754	35.73	34.707	33.687	32.67	31.655	30.645	29.642	28.649	27.669	26.707	25.765	24.848	23.961	23.11	22.3	21.535	20.813	20.131	19.477	18.838	18.201	17.555	16.893	16.21	15.503	14.767	14	13.2	12.367	11.5	10.6	9.6679	8.7075	7.7298	6.755	5.811	4.9274	4.128	3.4253	2.8184	2.2976	1.8532	1.4786	1.1709	0.92912	0.74911	0.62124	0.53123	0.46525	0.41319	0.37017	0.33642	0.31476	0.3076	0.31445	0.33138	0.35264	0.37352	0.39497	0.42847	0.49698	0.63222	0.86575	1.2169	1.6849	2.2505	2.886	3.5646	4.266	4.9798	5.7015	6.4306	7.1693	7.9214	8.6922	9.4877	10.314	11.176	12.076	13.017	14.001	15.026	16.094	17.204	18.356	19.55	20.785	22.061	23.379	24.738	26.141	27.589	29.086	30.635	32.241	33.911	35.649	37.456	39.326	41.248	43.181	45.169	47.321	49.841	52.993	56.981	61.831	67.391	73.46	80.046	87.321	95.609	105.3	116.59	129.39	143.48	158.64	174.7	191.47	208.8	226.56	244.53	262.49	280.26	297.69	314.74	331.48	347.94	364.06	378.58	390.92	399.94	405.36	407.96	409.08
800	800	800	800	800	799.99	799.92	799.69	799.21	798.37	797.14	795.57	793.77	791.84	789.87	787.89	785.9	783.91	781.92	779.92	777.91	775.91	773.9	771.89	769.87	767.85	765.81	763.76	761.67	759.53	757.32	754.97	752.38	749.41	745.93	741.82	737.09	731.84	726.19	720.29	714.21	707.99	701.65	695.18	688.59	681.86	675	668.01	660.89	653.66	646.35	638.96	631.55	624.11	616.69	609.32	602	594.75	587.55	580.38	573.2	565.97	558.64	551.18	543.58	535.82	527.94	519.95	511.87	503.73	495.51	487.25	478.96	470.7	462.52	454.45	446.53	438.77	431.16	423.7	416.37	409.17	402.11	395.18	388.4	381.74	375.19	368.75	362.41	356.15	349.98	343.89	337.86	331.88	325.95	320.05	314.2	308.41	302.67	296.99	291.38	285.82	280.3	274.81	269.34	263.9	258.47	253.08	247.71	242.36	237.02	231.69	226.36	221.04	215.71	210.4	205.1	199.84	194.63	189.48	184.4	179.39	174.45	169.6	164.84	160.2	155.7	151.36	147.16	143.07	139.05	135.06	131.08	127.09	123.11	119.15	115.23	111.38	107.65	104.07	100.64	97.356	94.189	91.11	88.093	85.12	82.176	79.254	76.343	73.438	70.533	67.623	64.708	61.799	58.958	56.282	53.9	51.925	50.394	49.239	48.326	47.52	46.729	45.896	45.021	44.107	43.16	42.184	41.181	40.157	39.114	38.057	36.991	35.921	34.851	33.782	32.716	31.653	30.594	29.54	28.493	27.456	26.433	25.426	24.439	23.477	22.545	21.649	20.794	19.987	19.228	18.515	17.836	17.179	16.529	15.873	15.204	14.514	13.8	13.059	12.286	11.481	10.64	9.7654	8.856	7.9153	6.9523	5.9851	5.042	4.1564	3.3598	2.6731	2.1018	1.6367	1.2609	0.95787	0.7157	0.52664	0.38588	0.28713	0.22178	0.17916	0.14992	0.12762	0.10914	0.094544	0.085371	0.083015	0.087391	0.096659	0.108	0.11899	0.12987	0.14741	0.18688	0.27216	0.43114	0.68717	1.0504	1.5148	2.0628	2.6718	3.321	3.9957	4.6874	5.3923	6.1104	6.8443	7.5991	8.3812	9.1971	10.053	10.953	11.899	12.894	13.937	15.028	16.166	17.349	18.577	19.849	21.164	22.523	23.926	25.375	26.873	28.423	30.031	31.701	33.437	35.242	37.113	39.044	41.023	43.007	45.018	47.151	49.587	52.588	56.386	61.055	66.487	72.495	79.052	86.281	94.445	103.9	114.83	127.17	140.7	155.19	170.47	186.41	202.94	220.07	237.68	255.64	273.78	291.88	309.76	327.3	344.41	360.89	375.57	387.85	396.64	401.66	403.72	404.21
800	800	800	800	800	799.99	799.9	799.65	799.13	798.24	796.96	795.35	793.52	791.58	789.6	787.61	785.62	783.63	781.63	779.63	777.63	775.62	773.61	771.59	769.57	767.54	765.5	763.43	761.31	759.13	756.86	754.43	751.76	748.73	745.21	741.1	736.4	731.19	725.59	719.73	713.67	707.47	701.13	694.65	688.03	681.29	674.41	667.42	660.3	653.08	645.78	638.41	631.01	623.59	616.19	608.83	601.53	594.29	587.11	579.94	572.74	565.49	558.12	550.63	542.98	535.19	527.26	519.21	511.06	502.82	494.5	486.12	477.73	469.38	461.15	453.09	445.23	437.57	430.1	422.77	415.57	408.47	401.48	394.59	387.8	381.1	374.5	367.99	361.6	355.31	349.14	343.07	337.08	331.16	325.28	319.45	313.66	307.92	302.24	296.62	291.06	285.55	280.08	274.63	269.21	263.8	258.41	253.04	247.68	242.33	236.99	231.65	226.31	220.97	215.62	210.29	204.97	199.69	194.44	189.26	184.15	179.11	174.16	169.3	164.55	159.91	155.43	151.11	146.93	142.87	138.88	134.92	130.97	127.01	123.06	119.13	115.25	111.44	107.75	104.19	100.78	97.496	94.321	91.228	88.199	85.215	82.266	79.342	76.433	73.532	70.633	67.73	64.822	61.918	59.076	56.387	53.974	51.95	50.355	49.13	48.149	47.28	46.432	45.547	44.622	43.659	42.663	41.64	40.591	39.521	38.433	37.332	36.221	35.105	33.989	32.873	31.761	30.652	29.548	28.449	27.358	26.278	25.21	24.159	23.128	22.12	21.142	20.199	19.3	18.45	17.653	16.908	16.205	15.53	14.867	14.202	13.525	12.83	12.112	11.366	10.59	9.7806	8.9378	8.0618	7.156	6.2281	5.2946	4.3808	3.5203	2.7467	2.0869	1.5523	1.1377	0.82486	0.59086	0.41553	0.2846	0.1886	0.12178	0.078295	0.052119	0.036916	0.027694	0.021208	0.015882	0.011612	0.0089651	0.0084836	0.010208	0.013552	0.017575	0.021426	0.025164	0.032097	0.050802	0.09678	0.19133	0.35698	0.61065	0.95844	1.3949	1.9063	2.4753	3.0864	3.7278	4.392	5.076	5.7805	6.5093	7.2687	8.0663	8.909	9.8026	10.751	11.755	12.816	13.931	15.099	16.316	17.582	18.894	20.252	21.656	23.107	24.608	26.162	27.772	29.444	31.181	32.984	34.852	36.782	38.764	40.791	42.817	44.85	46.966	49.323	52.173	55.766	60.224	65.488	71.396	77.89	85.046	93.059	102.24	112.78	124.65	137.64	151.51	166.07	181.22	196.93	213.31	230.38	248.12	266.42	285.06	303.75	322.18	340.06	357.09	372.09	384.51	393.37	398.44	400.52	401
800	800	800	800	800	799.98	799.88	799.61	799.06	798.12	796.8	795.15	793.3	791.35	789.35	787.36	785.36	783.37	781.36	779.36	777.35	775.34	773.33	771.31	769.29	767.25	765.2	763.11	760.96	758.74	756.4	753.91	751.17	748.07	744.51	740.4	735.73	730.56	725.02	719.2	713.19	707.01	700.68	694.19	687.56	680.8	673.91	666.9	659.79	652.59	645.31	637.98	630.6	623.22	615.86	608.53	601.25	594.03	586.84	579.66	572.43	565.13	557.73	550.19	542.5	534.66	526.68	518.57	510.34	502	493.56	485.07	476.57	468.15	459.87	451.83	444.04	436.49	429.15	421.95	414.87	407.86	400.93	394.06	387.27	380.53	373.88	367.31	360.86	354.55	348.37	342.33	336.39	330.52	324.71	318.94	313.2	307.52	301.89	296.33	290.82	285.35	279.92	274.51	269.12	263.74	258.37	253.01	247.66	242.32	236.97	231.62	226.27	220.91	215.56	210.2	204.86	199.54	194.26	189.04	183.89	178.83	173.87	169.02	164.29	159.7	155.26	150.98	146.84	142.8	138.83	134.88	130.94	127	123.07	119.16	115.3	111.52	107.85	104.31	100.9	97.622	94.445	91.35	88.318	85.334	82.388	79.468	76.566	73.674	70.785	67.894	64.999	62.108	59.273	56.577	54.135	52.054	50.382	49.07	48.005	47.063	46.151	45.212	44.235	43.223	42.18	41.11	40.016	38.902	37.77	36.624	35.469	34.308	33.145	31.984	30.824	29.669	28.519	27.375	26.24	25.115	24.002	22.906	21.83	20.776	19.751	18.762	17.817	16.923	16.088	15.31	14.581	13.888	13.212	12.538	11.855	11.156	10.434	9.6859	8.909	8.1022	7.2668	6.4067	5.5304	4.6522	3.7949	2.988	2.264	1.6492	1.1582	0.78935	0.52686	0.34649	0.22441	0.14144	0.085078	0.047371	0.02382	0.010399	0.0037933	0.0010564	0.00019668	5.6142e-05	3.4258e-05	1.6349e-05	4.4656e-06	9.7925e-08	8.9379e-08	1.3533e-06	3.1326e-06	5.6869e-06	7.6956e-05	0.0014808	0.0081016	0.028424	0.076383	0.17003	0.32759	0.5626	0.88044	1.2777	1.7446	2.2685	2.8372	3.441	4.0739	4.7343	5.4244	6.1497	6.9181	7.7385	8.6184	9.5631	10.575	11.654	12.796	13.997	15.253	16.561	17.919	19.326	20.782	22.289	23.849	25.465	27.141	28.881	30.684	32.55	34.475	36.452	38.474	40.532	42.588	44.634	46.727	49	51.687	55.049	59.253	64.3	70.068	76.482	83.571	91.467	100.44	110.68	122.19	134.79	148.21	162.21	176.64	191.53	207.04	223.36	240.6	258.75	277.63	296.9	316.11	334.77	352.45	367.93	380.72	389.94	395.42	397.96	398.9
800	800	800	800	800	799.98	799.87	799.57	798.98	798.01	796.65	794.97	793.1	791.13	789.13	787.12	785.12	783.12	781.11	779.1	777.09	775.08	773.06	771.04	769.01	766.97	764.91	762.8	760.62	758.36	755.98	753.42	750.61	747.46	743.86	739.73	735.08	729.95	724.45	718.69	712.73	706.6	700.29	693.8	687.16	680.38	673.47	666.46	659.36	652.18	644.93	637.63	630.31	622.97	615.65	608.35	601.1	593.89	586.7	579.49	572.23	564.88	557.42	549.83	542.1	534.21	526.18	518	509.69	501.26	492.73	484.14	475.55	467.06	458.75	450.73	443	435.56	428.33	421.24	414.25	407.31	400.42	393.58	386.78	380.03	373.34	366.73	360.24	353.9	347.73	341.71	335.81	330	324.24	318.52	312.83	307.2	301.62	296.09	290.62	285.19	279.79	274.41	269.04	263.68	258.33	252.99	247.65	242.3	236.95	231.6	226.24	220.87	215.5	210.13	204.76	199.41	194.09	188.82	183.63	178.54	173.58	168.76	164.1	159.58	155.22	151	146.9	142.88	138.92	134.97	131.03	127.08	123.15	119.24	115.38	111.61	107.94	104.41	101.01	97.73	94.558	91.469	88.446	85.473	82.539	79.631	76.741	73.861	70.985	68.109	65.231	62.358	59.536	56.838	54.368	52.228	50.468	49.057	47.895	46.869	45.888	44.892	43.863	42.803	41.712	40.597	39.459	38.301	37.126	35.938	34.739	33.534	32.325	31.117	29.91	28.708	27.511	26.321	25.14	23.969	22.812	21.67	20.546	19.446	18.374	17.337	16.345	15.407	14.531	13.719	12.964	12.252	11.562	10.88	10.191	9.4884	8.7655	8.0198	7.2508	6.4603	5.6536	4.8395	4.032	3.2503	2.52	1.868	1.318	0.88243	0.56108	0.3405	0.199	0.11281	0.062203	0.0328	0.016085	0.0069077	0.0024994	0.00067737	0.00011576	6.7241e-07	0	0	0	0	0	0	0	0	0	0	0	0.00020376	0.0019412	0.0089913	0.029025	0.074163	0.15969	0.30095	0.50978	0.7915	1.145	1.5638	2.0386	2.5602	3.1213	3.7185	4.3523	5.0274	5.7522	6.5373	7.393	8.3274	9.344	10.442	11.615	12.856	14.159	15.518	16.93	18.394	19.911	21.482	23.109	24.794	26.539	28.346	30.211	32.132	34.102	36.113	38.159	40.232	42.3	44.344	46.402	48.579	51.08	54.172	58.064	62.829	68.407	74.725	81.768	89.614	98.497	108.61	119.99	132.46	145.69	159.34	173.21	187.34	201.98	217.42	233.93	251.62	270.37	289.84	309.51	328.76	347.03	363.05	376.39	386.21	392.41	395.78	397.53
800	800	800	800	800	799.97	799.85	799.54	798.92	797.91	796.51	794.81	792.91	790.93	788.91	786.9	784.89	782.88	780.87	778.86	776.84	774.82	772.81	770.78	768.75	766.71	764.63	762.5	760.31	758.01	755.59	752.98	750.11	746.9	743.25	739.1	734.45	729.34	723.9	718.2	712.3	706.22	699.94	693.47	686.81	680.01	673.09	666.07	658.98	651.82	644.61	637.36	630.08	622.79	615.51	608.25	601.03	593.83	586.62	579.39	572.08	564.69	557.18	549.54	541.75	533.82	525.73	517.5	509.12	500.61	492.01	483.35	474.7	466.16	457.85	449.84	442.17	434.8	427.64	420.63	413.69	406.8	399.95	393.13	386.34	379.58	372.87	366.24	359.74	353.39	347.22	341.22	335.36	329.58	323.86	318.17	312.53	306.92	301.38	295.89	290.44	285.04	279.67	274.31	268.97	263.63	258.29	252.96	247.62	242.28	236.94	231.58	226.22	220.84	215.46	210.06	204.67	199.28	193.92	188.6	183.37	178.27	173.32	168.56	163.99	159.58	155.31	151.17	147.11	143.12	139.15	135.19	131.23	127.27	123.31	119.39	115.51	111.72	108.04	104.5	101.09	97.819	94.658	91.586	88.583	85.631	82.716	79.826	76.953	74.089	71.229	68.37	65.51	62.657	59.849	57.15	54.653	52.452	50.601	49.083	47.817	46.701	45.646	44.589	43.508	42.399	41.262	40.102	38.922	37.722	36.507	35.278	34.037	32.788	31.535	30.28	29.026	27.775	26.53	25.292	24.063	22.845	21.64	20.451	19.28	18.132	17.011	15.925	14.884	13.9	12.983	12.136	11.354	10.621	9.9176	9.2263	8.5334	7.8305	7.1139	6.383	5.6407	4.8926	4.1481	3.4203	2.7265	2.0866	1.5217	1.0497	0.67996	0.41052	0.2297	0.11858	0.056347	0.024547	0.0098842	0.0036133	0.0011852	0.00027883	4.4915e-05	4.7813e-07	0	0	0	0	0	0	0	0	0	0	0	0	0	0	0.00027324	0.0021364	0.0090276	0.02758	0.067916	0.14262	0.26468	0.44412	0.68685	0.99336	1.36	1.7807	2.2493	2.7616	3.3173	3.9202	4.5798	5.3094	6.1242	7.0368	8.0537	9.1729	10.385	11.677	13.039	14.461	15.94	17.473	19.061	20.704	22.403	24.16	25.973	27.841	29.76	31.723	33.724	35.754	37.809	39.879	41.941	43.969	45.979	48.047	50.342	53.124	56.641	61.051	66.378	72.57	79.576	87.424	96.324	106.47	117.93	130.55	143.88	157.45	170.99	184.55	198.43	213.03	228.75	245.76	264.04	283.3	303	322.49	341.13	357.61	371.51	382.01	389.05	393.38	396.05
800	800	800	800	800	799.97	799.83	799.5	798.85	797.81	796.38	794.65	792.73	790.73	788.71	786.7	784.68	782.66	780.64	778.62	776.61	774.58	772.56	770.54	768.5	766.45	764.37	762.23	760.02	757.7	755.24	752.59	749.68	746.41	742.7	738.51	733.84	728.75	723.34	717.7	711.87	705.84	699.61	693.15	686.49	679.68	672.74	665.72	658.64	651.51	644.33	637.12	629.89	622.64	615.41	608.19	600.98	593.79	586.57	579.31	571.98	564.54	556.98	549.29	541.46	533.48	525.34	517.04	508.6	500.04	491.38	482.69	474.02	465.48	457.18	449.19	441.55	434.21	427.09	420.1	413.19	406.32	399.49	392.69	385.92	379.17	372.47	365.85	359.35	353.01	346.86	340.87	335.02	329.26	323.55	317.88	312.26	306.68	301.15	295.69	290.28	284.9	279.56	274.22	268.9	263.58	258.26	252.93	247.6	242.27	236.93	231.57	226.2	220.82	215.43	210.02	204.6	199.17	193.76	188.4	183.14	178.03	173.13	168.45	163.98	159.69	155.53	151.47	147.46	143.49	139.52	135.54	131.56	127.56	123.58	119.61	115.7	111.87	108.15	104.58	101.17	97.894	94.749	91.703	88.73	85.807	82.919	80.052	77.199	74.353	71.51	68.668	65.827	62.993	60.198	57.498	54.973	52.711	50.77	49.144	47.771	46.56	45.426	44.307	43.173	42.015	40.834	39.632	38.411	37.172	35.918	34.649	33.368	32.078	30.781	29.48	28.178	26.879	25.584	24.296	23.017	21.749	20.493	19.254	18.033	16.835	15.663	14.527	13.435	12.403	11.442	10.559	9.7482	8.9949	8.2788	7.5818	6.891	6.1999	5.5073	4.8154	4.1304	3.4609	2.8189	2.2189	1.6762	1.2052	0.81731	0.51747	0.30249	0.16068	0.076259	0.031459	0.010793	0.0027818	0.00045098	0	0	0	0	0	0	0	0	0	0	0	0	0	0	0	0	0	0	0	0	0.00028625	0.0020447	0.008179	0.02408	0.057815	0.11979	0.22024	0.3683	0.56944	0.82569	1.1357	1.4963	1.9051	2.3618	2.8698	3.4395	4.0889	4.8397	5.7128	6.7209	7.8624	9.1223	10.48	11.916	13.416	14.973	16.586	18.251	19.971	21.744	23.569	25.444	27.364	29.323	31.315	33.333	35.369	37.418	39.472	41.512	43.512	45.468	47.424	49.505	51.952	55.046	59.031	64.034	70.052	77.002	84.871	93.848	104.12	115.83	128.78	142.44	156.18	169.63	182.85	196.19	210.11	225.1	241.39	258.99	277.7	297.03	316.37	335.05	351.77	366.13	377.31	385.28	390.69	394.4
800	800	800	800	800	799.96	799.82	799.47	798.78	797.71	796.24	794.49	792.56	790.55	788.52	786.5	784.47	782.45	780.43	778.4	776.38	774.36	772.33	770.3	768.26	766.21	764.12	761.98	759.76	757.43	754.95	752.27	749.3	745.97	742.2	737.95	733.24	728.14	722.76	717.17	711.4	705.43	699.24	692.81	686.16	679.34	672.4	665.39	658.32	651.22	644.07	636.9	629.71	622.51	615.31	608.12	600.94	593.75	586.53	579.26	571.89	564.42	556.82	549.09	541.21	533.17	524.98	516.63	508.13	499.53	490.84	482.14	473.48	464.97	456.7	448.75	441.12	433.77	426.64	419.65	412.74	405.88	399.06	392.27	385.52	378.8	372.13	365.54	359.06	352.74	346.6	340.62	334.76	329	323.29	317.63	312.01	306.44	300.94	295.5	290.11	284.76	279.44	274.13	268.83	263.53	258.22	252.91	247.59	242.26	236.92	231.57	226.2	220.81	215.41	209.99	204.55	199.09	193.65	188.25	182.98	177.9	173.06	168.47	164.12	159.94	155.87	151.88	147.91	143.95	139.98	135.99	131.98	127.96	123.94	119.92	115.96	112.07	108.3	104.68	101.24	97.966	94.841	91.829	88.893	86.007	83.149	80.309	77.477	74.65	71.823	68.998	66.173	63.356	60.572	57.867	55.315	52.994	50.964	49.233	47.754	46.448	45.235	44.051	42.864	41.659	40.435	39.192	37.933	36.657	35.366	34.06	32.741	31.41	30.071	28.726	27.378	26.029	24.684	23.343	22.01	20.688	19.379	18.085	16.811	15.559	14.334	13.143	11.998	10.915	9.9091	8.9882	8.1498	7.3797	6.6583	5.9683	5.298	4.6426	4.0032	3.3844	2.794	2.2414	1.7372	1.2921	0.91479	0.61037	0.37927	0.21644	0.11162	0.050607	0.019652	0.0061859	0.0014107	0.00014711	0	0	0	0	0	0	0	0	0	0	0	0	0	0	0	0	0	0	0	0	0	0	0.00025518	0.0017142	0.0066079	0.018979	0.045324	0.093285	0.1715	0.287	0.44525	0.6489	0.89864	1.1946	1.5378	1.9322	2.3894	2.933	3.5942	4.4058	5.3909	6.5509	7.8645	9.2986	10.822	12.413	14.059	15.755	17.502	19.297	21.138	23.023	24.948	26.907	28.894	30.901	32.924	34.955	36.988	39.016	41.026	42.992	44.898	46.755	48.639	50.762	53.421	56.94	61.562	67.354	74.22	82.103	91.164	101.59	113.55	126.87	140.93	154.98	168.54	181.67	194.73	208.21	222.63	238.24	255.07	273	291.66	310.49	328.89	345.59	360.2	371.92	380.72	387.1	391.72
800	800	800	800	800	799.96	799.8	799.43	798.72	797.61	796.11	794.33	792.39	790.37	788.34	786.31	784.28	782.25	780.22	778.19	776.16	774.14	772.11	770.07	768.03	765.98	763.89	761.75	759.53	757.2	754.71	752	748.99	745.6	741.75	737.41	732.64	727.51	722.14	716.58	710.85	704.93	698.78	692.38	685.76	678.95	672.04	665.04	658	650.93	643.82	636.69	629.54	622.38	615.22	608.06	600.89	593.72	586.5	579.22	571.84	564.34	556.71	548.94	541.01	532.92	524.66	516.25	507.7	499.06	490.36	481.67	473.06	464.6	456.37	448.44	440.8	433.43	426.27	419.24	412.31	405.45	398.63	391.86	385.13	378.44	371.81	365.26	358.83	352.54	346.4	340.42	334.56	328.79	323.07	317.39	311.77	306.21	300.72	295.3	289.94	284.63	279.33	274.05	268.77	263.48	258.19	252.89	247.58	242.25	236.92	231.57	226.2	220.82	215.41	209.98	204.53	199.06	193.6	188.21	182.96	177.92	173.16	168.67	164.41	160.32	156.32	152.37	148.43	144.48	140.51	136.51	132.49	128.44	124.38	120.33	116.3	112.34	108.5	104.82	101.34	98.06	94.953	91.977	89.083	86.236	83.411	80.596	77.786	74.976	72.166	69.355	66.545	63.742	60.965	58.254	55.672	53.294	51.18	49.349	47.767	46.368	45.076	43.828	42.587	41.336	40.071	38.79	37.494	36.183	34.856	33.515	32.159	30.791	29.412	28.024	26.631	25.234	23.838	22.443	21.054	19.674	18.306	16.954	15.621	14.311	13.027	11.778	10.575	9.4386	8.3856	7.4301	6.5722	5.7995	5.093	4.4355	3.8158	3.2299	2.68	2.1707	1.7082	1.2986	0.94723	0.65753	0.43002	0.26168	0.14573	0.072765	0.031834	0.011549	0.0033233	0.00066051	6.463e-05	0	0	0	0	0	0	0	0	0	0	0	0	0	0	0	0	0	0	0	0	0	0	0	0	0.00018514	0.0012115	0.0045728	0.013393	0.032012	0.066479	0.12268	0.20658	0.32268	0.47412	0.66331	0.89298	1.1675	1.4994	1.9187	2.4673	3.1936	4.1362	5.3033	6.6682	8.1829	9.8003	11.487	13.221	15	16.821	18.682	20.581	22.513	24.475	26.459	28.462	30.475	32.495	34.514	36.527	38.528	40.505	42.439	44.305	46.09	47.821	49.673	51.944	55.02	59.25	64.795	71.567	79.467	88.597	99.124	111.22	124.76	139.11	153.46	167.25	180.49	193.52	206.81	220.86	235.88	251.95	268.99	286.74	304.78	322.57	338.97	353.61	365.72	375.18	382.34	387.64
800	800	800	800	800	799.95	799.79	799.39	798.65	797.51	795.98	794.18	792.22	790.2	788.16	786.12	784.09	782.06	780.02	777.99	775.96	773.92	771.89	769.85	767.81	765.76	763.67	761.54	759.33	757.01	754.52	751.8	748.75	745.27	741.33	736.89	732.04	726.86	721.46	715.9	710.19	704.3	698.19	691.83	685.24	678.49	671.61	664.65	657.65	650.61	643.55	636.46	629.35	622.24	615.11	607.98	600.84	593.68	586.48	579.2	571.81	564.31	556.65	548.85	540.87	532.71	524.39	515.91	507.3	498.62	489.93	481.26	472.7	464.3	456.13	448.21	440.56	433.15	425.94	418.87	411.9	405.03	398.21	391.46	384.76	378.1	371.51	365.01	358.62	352.36	346.24	340.26	334.39	328.6	322.86	317.17	311.54	305.97	300.49	295.1	289.77	284.49	279.23	273.97	268.71	263.44	258.16	252.87	247.57	242.26	236.93	231.58	226.22	220.84	215.43	210	204.56	199.1	193.67	188.32	183.13	178.17	173.49	169.08	164.89	160.84	156.87	152.93	149	145.05	141.08	137.08	133.05	128.99	124.9	120.8	116.72	112.69	108.78	105.03	101.5	98.206	95.113	92.168	89.314	86.504	83.709	80.918	78.126	75.332	72.535	69.738	66.94	64.148	61.375	58.655	56.044	53.611	51.418	49.492	47.813	46.325	44.956	43.645	42.351	41.055	39.75	38.432	37.1	35.755	34.394	33.019	31.629	30.225	28.808	27.381	25.945	24.502	23.055	21.607	20.161	18.72	17.29	15.873	14.475	13.1	11.751	10.437	9.1737	7.9821	6.8876	5.9097	5.0524	4.304	3.6447	3.0559	2.5241	2.0439	1.6156	1.2407	0.9202	0.65472	0.44292	0.28188	0.1665	0.089745	0.043073	0.01781	0.0061139	0.0014877	0.00022003	1.1335e-05	0	0	0	0	0	0	0	0	0	0	0	0	0	0	0	0	0	0	0	0	0	0	0	0	0	0	9.5243e-05	0.00063349	0.0026975	0.008091	0.019997	0.042016	0.07867	0.1341	0.21195	0.31555	0.44829	0.61468	0.82654	1.1189	1.5441	2.1671	3.0452	4.1989	5.599	7.1831	8.8859	10.659	12.474	14.323	16.205	18.118	20.06	22.025	24.01	26.011	28.02	30.035	32.048	34.055	36.049	38.025	39.974	41.882	43.723	45.469	47.106	48.773	50.754	53.471	57.364	62.691	69.401	77.349	86.542	97.092	109.15	122.65	137.05	151.55	165.58	179.07	192.28	205.59	219.45	234.02	249.36	265.46	282.15	299.14	316.04	331.9	346.33	358.6	368.46	376.05	381.6
800	800	800	800	800	799.95	799.77	799.35	798.58	797.4	795.85	794.03	792.06	790.02	787.98	785.94	783.9	781.87	779.83	777.79	775.76	773.72	771.68	769.64	767.6	765.54	763.47	761.34	759.15	756.85	754.38	751.64	748.54	744.99	740.92	736.37	731.41	726.16	720.72	715.14	709.42	703.53	697.44	691.12	684.6	677.9	671.09	664.19	657.25	650.26	643.24	636.2	629.14	622.07	614.99	607.89	600.78	593.64	586.44	579.18	571.81	564.31	556.65	548.81	540.78	532.55	524.14	515.57	506.91	498.2	489.51	480.88	472.38	464.05	455.91	448.01	440.34	432.89	425.62	418.5	411.5	404.61	397.8	391.06	384.38	377.77	371.22	364.76	358.41	352.19	346.09	340.11	334.23	328.42	322.67	316.96	311.31	305.75	300.28	294.9	289.6	284.36	279.13	273.9	268.66	263.41	258.15	252.87	247.58	242.27	236.95	231.61	226.25	220.87	215.47	210.06	204.64	199.23	193.86	188.6	183.52	178.66	174.06	169.69	165.52	161.48	157.5	153.55	149.61	145.65	141.68	137.68	133.64	129.57	125.47	121.35	117.22	113.14	109.15	105.34	101.76	98.443	95.351	92.427	89.601	86.82	84.049	81.276	78.5	75.718	72.933	70.145	67.358	64.572	61.801	59.071	56.431	53.945	51.677	49.663	47.894	46.321	44.879	43.507	42.162	40.822	39.477	38.122	36.756	35.377	33.984	32.576	31.154	29.716	28.265	26.8	25.324	23.837	22.343	20.843	19.341	17.84	16.344	14.859	13.39	11.942	10.521	9.1368	7.8101	6.5698	5.4489	4.4737	3.6502	2.9645	2.3923	1.9099	1.4982	1.1478	0.8541	0.61377	0.42253	0.27622	0.16931	0.09573	0.048915	0.022009	0.0083439	0.0024736	0.00052968	2.0953e-05	0	0	0	0	0	0	0	0	0	0	0	0	0	0	0	0	0	0	0	0	0	0	0	0	0	0	0	0	0	3.8925e-06	0.00024199	0.0011873	0.0040137	0.010281	0.022508	0.043408	0.075735	0.12233	0.18621	0.27104	0.38633	0.56835	0.87713	1.3909	2.186	3.2989	4.7044	6.3299	8.0934	9.9327	11.808	13.709	15.635	17.585	19.555	21.542	23.543	25.553	27.567	29.58	31.588	33.586	35.567	37.526	39.456	41.347	43.177	44.911	46.511	48.082	49.893	52.377	56.042	61.233	67.952	76.007	85.289	95.82	107.7	120.92	135.08	149.52	163.69	177.45	190.93	204.42	218.22	232.47	247.17	262.33	277.88	293.67	309.46	324.56	338.58	350.77	360.73	368.32	373.67
800	800	800	800	800	799.94	799.75	799.31	798.51	797.3	795.72	793.88	791.89	789.85	787.81	785.76	783.72	781.68	779.64	777.6	775.56	773.52	771.48	769.44	767.39	765.34	763.26	761.16	758.99	756.72	754.26	751.52	748.36	744.71	740.51	735.83	730.76	725.43	719.93	714.3	708.55	702.65	696.57	690.29	683.82	677.21	670.47	663.65	656.76	649.84	642.88	635.89	628.89	621.87	614.83	607.77	600.68	593.55	586.38	579.13	571.79	564.31	556.66	548.79	540.7	532.38	523.86	515.21	506.49	497.76	489.08	480.51	472.07	463.79	455.7	447.81	440.12	432.62	425.3	418.13	411.1	404.19	397.38	390.66	384.01	377.43	370.93	364.52	358.21	352.01	345.93	339.96	334.07	328.25	322.48	316.76	311.1	305.53	300.07	294.71	289.44	284.23	279.03	273.84	268.63	263.4	258.15	252.88	247.6	242.3	236.98	231.65	226.29	220.92	215.54	210.15	204.78	199.45	194.2	189.06	184.1	179.34	174.81	170.47	166.29	162.21	158.2	154.22	150.25	146.29	142.3	138.3	134.26	130.19	126.08	121.94	117.79	113.67	109.64	105.78	102.15	98.799	95.693	92.771	89.957	87.192	84.436	81.675	78.908	76.135	73.358	70.578	67.796	65.015	62.243	59.501	56.832	54.296	51.96	49.864	48.011	46.36	44.85	43.42	42.025	40.641	39.256	37.865	36.465	35.054	33.629	32.19	30.737	29.268	27.784	26.285	24.772	23.246	21.708	20.16	18.605	17.045	15.484	13.928	12.384	10.858	9.3571	7.9002	6.5152	5.2419	4.1228	3.1881	2.4406	1.8584	1.4077	1.0558	0.77619	0.55465	0.38207	0.25184	0.15678	0.091047	0.048281	0.022679	0.0090587	0.0028854	0.00061047	2.7506e-05	0	0	0	0	0	0	0	0	0	0	0	0	0	0	0	0	0	0	0	0	0	0	0	0	0	0	0	0	0	0	0	0	0	3.9121e-05	0.0003598	0.0013318	0.0038936	0.0092885	0.019022	0.034874	0.058833	0.093324	0.14458	0.24571	0.45942	0.87135	1.5727	2.6176	3.9914	5.6194	7.4086	9.2843	11.198	13.132	15.086	17.06	19.05	21.053	23.065	25.083	27.102	29.117	31.124	33.118	35.094	37.046	38.969	40.854	42.683	44.423	46.026	47.573	49.324	51.713	55.285	60.452	67.264	75.492	84.903	95.417	107.06	119.86	133.6	147.8	161.97	175.93	189.69	203.4	217.24	231.25	245.41	259.7	274.11	288.63	303.19	317.4	330.84	342.79	352.63	360	364.92
800	800	800	800	800	799.93	799.73	799.26	798.43	797.19	795.58	793.72	791.73	789.68	787.64	785.59	783.55	781.5	779.46	777.41	775.37	773.33	771.28	769.24	767.19	765.13	763.07	760.97	758.83	756.59	754.15	751.39	748.17	744.41	740.08	735.26	730.08	724.66	719.1	713.42	707.63	701.7	695.62	689.37	682.96	676.42	669.76	663.01	656.2	649.33	642.44	635.51	628.57	621.6	614.61	607.59	600.52	593.4	586.24	579.01	571.7	564.25	556.6	548.71	540.55	532.13	523.5	514.76	505.99	497.25	488.62	480.1	471.73	463.51	455.45	447.57	439.87	432.33	424.97	417.75	410.68	403.75	396.95	390.25	383.64	377.1	370.64	364.27	358	351.83	345.76	339.8	333.91	328.08	322.3	316.57	310.91	305.34	299.88	294.54	289.3	284.11	278.95	273.78	268.6	263.39	258.16	252.91	247.64	242.34	237.03	231.7	226.35	220.99	215.64	210.29	204.99	199.76	194.63	189.64	184.8	180.13	175.65	171.31	167.11	162.99	158.94	154.92	150.93	146.94	142.95	138.94	134.9	130.82	126.71	122.57	118.42	114.29	110.24	106.34	102.68	99.283	96.147	93.207	90.386	87.622	84.87	82.114	79.352	76.583	73.81	71.033	68.254	65.475	62.699	59.944	57.248	54.667	52.268	50.098	48.169	46.446	44.872	43.386	41.943	40.515	39.091	37.664	36.23	34.787	33.332	31.864	30.381	28.883	27.369	25.839	24.293	22.731	21.154	19.563	17.959	16.345	14.723	13.099	11.48	9.8717	8.2898	6.7631	5.3328	4.0529	2.9733	2.1216	1.4889	1.0384	0.72298	0.50013	0.3379	0.22023	0.13641	0.079508	0.042603	0.020635	0.0087496	0.0030576	0.000797	0.00012507	0	0	0	0	0	0	0	0	0	0	0	0	0	0	0	0	0	0	0	0	0	0	0	0	0	0	0	0	0	0	0	0	0	0	0	0	0	0	0.00016101	0.00075902	0.0022629	0.0054291	0.011257	0.021001	0.037975	0.088784	0.23397	0.55963	1.1654	2.1212	3.4285	5.0198	6.7986	8.6818	10.612	12.566	14.539	16.529	18.535	20.551	22.576	24.603	26.63	28.652	30.664	32.662	34.642	36.597	38.523	40.411	42.247	44.004	45.633	47.207	48.986	51.4	55.009	60.261	67.235	75.668	85.233	95.755	107.19	119.58	132.85	146.69	160.73	174.76	188.7	202.6	216.48	230.33	244.05	257.59	270.97	284.29	297.65	310.93	323.71	335.34	345.05	352.27	356.91
800	800	800	800	799.99	799.92	799.7	799.21	798.35	797.07	795.44	793.57	791.57	789.52	787.47	785.42	783.37	781.33	779.28	777.23	775.19	773.14	771.09	769.04	766.99	764.94	762.87	760.79	758.66	756.44	754	751.22	747.93	744.05	739.59	734.64	729.36	723.87	718.24	712.52	706.69	700.73	694.64	688.42	682.06	675.58	668.99	662.3	655.56	648.76	641.92	635.07	628.19	621.28	614.33	607.33	600.28	593.16	586	578.77	571.47	564.04	556.39	548.47	540.23	531.7	522.97	514.15	505.35	496.64	488.06	479.62	471.33	463.17	455.15	447.29	439.57	432.01	424.6	417.35	410.24	403.3	396.5	389.82	383.25	376.76	370.35	364.02	357.77	351.63	345.58	339.63	333.75	327.92	322.14	316.4	310.74	305.16	299.71	294.39	289.16	284.01	278.87	273.73	268.58	263.4	258.19	252.96	247.7	242.41	237.1	231.77	226.44	221.09	215.77	210.48	205.26	200.14	195.13	190.25	185.52	180.92	176.47	172.14	167.91	163.76	159.67	155.63	151.61	147.61	143.61	139.59	135.54	131.47	127.36	123.23	119.09	114.97	110.92	107.01	103.31	99.878	96.7	93.726	90.883	88.106	85.348	82.59	79.826	77.057	74.284	71.508	68.729	65.948	63.168	60.4	57.68	55.06	52.605	50.368	48.37	46.581	44.947	43.408	41.918	40.446	38.982	37.52	36.053	34.58	33.096	31.6	30.091	28.565	27.024	25.465	23.889	22.295	20.683	19.055	17.409	15.748	14.072	12.387	10.696	9.0103	7.3527	5.7669	4.3121	3.0567	2.0534	1.3176	0.82031	0.50527	0.3125	0.19327	0.11578	0.065926	0.034614	0.016545	0.0068616	0.0024029	0.00066937	0.00011413	1.4863e-06	0	0	0	0	0	0	0	0	0	0	0	0	0	0	0	0	0	0	0	0	0	0	0	0	0	0	0	0	0	0	0	0	0	0	0	0	0	0	0	0	0	0	7.7283e-05	0.00044338	0.0014791	0.0044947	0.02846	0.12796	0.38423	0.8986	1.7533	2.9682	4.491	6.2297	8.0971	10.03	11.994	13.981	15.987	18.009	20.041	22.079	24.121	26.16	28.194	30.218	32.227	34.218	36.185	38.122	40.022	41.871	43.65	45.317	46.955	48.829	51.369	55.128	60.548	67.712	76.335	86.039	96.583	107.87	119.93	132.79	146.26	160.07	174.02	188.01	201.97	215.85	229.55	242.91	255.84	268.39	280.72	293.04	305.44	317.6	328.95	338.65	345.99	350.75
800	800	800	800	799.99	799.91	799.67	799.15	798.26	796.95	795.3	793.42	791.41	789.36	787.3	785.25	783.2	781.15	779.11	777.06	775.01	772.96	770.91	768.85	766.8	764.74	762.67	760.59	758.47	756.24	753.79	750.96	747.6	743.62	739.04	733.98	728.62	723.06	717.39	711.62	705.76	699.78	693.69	687.48	681.16	674.72	668.18	661.56	654.87	648.13	641.36	634.57	627.75	620.9	613.99	607.01	599.96	592.83	585.64	578.39	571.07	563.61	555.94	547.96	539.63	531.01	522.2	513.33	504.52	495.86	487.37	479.02	470.82	462.73	454.76	446.92	439.2	431.62	424.18	416.89	409.75	402.79	396	389.36	382.84	376.4	370.03	363.74	357.52	351.4	345.38	339.44	333.57	327.75	321.98	316.25	310.58	305.02	299.57	294.26	289.05	283.9	278.79	273.68	268.56	263.41	258.23	253.01	247.77	242.49	237.19	231.87	226.54	221.23	215.94	210.71	205.57	200.54	195.62	190.84	186.18	181.63	177.21	172.88	168.64	164.47	160.37	156.31	152.28	148.27	144.26	140.23	136.19	132.12	128.02	123.91	119.79	115.69	111.65	107.74	104.03	100.55	97.327	94.308	91.431	88.631	85.861	83.094	80.325	77.552	74.776	71.997	69.215	66.432	63.647	60.869	58.13	55.477	52.974	50.679	48.617	46.767	45.076	43.485	41.949	40.435	38.933	37.435	35.937	34.435	32.924	31.402	29.867	28.316	26.749	25.165	23.562	21.941	20.3	18.639	16.959	15.259	13.539	11.802	10.052	8.2992	6.5794	4.9519	3.4951	2.2895	1.3842	0.77476	0.40745	0.20769	0.10686	0.055365	0.027088	0.012157	0.0046054	0.0014262	0.00027048	7.8514e-06	0	0	0	0	0	0	0	0	0	0	0	0	0	0	0	0	0	0	0	0	0	0	0	0	0	0	0	0	0	0	0	0	0	0	0	0	0	0	0	0	0	0	0	0	0	0	0	0	0.00015571	0.012283	0.082359	0.28339	0.71316	1.4619	2.5683	4.0004	5.6777	7.5134	9.4392	11.41	13.412	15.436	17.476	19.527	21.585	23.644	25.701	27.752	29.793	31.82	33.828	35.813	37.769	39.687	41.556	43.359	45.074	46.802	48.822	51.563	55.555	61.195	68.54	77.298	87.086	97.641	108.84	120.69	133.24	146.38	159.91	173.66	187.53	201.41	215.18	228.68	241.72	254.17	266.09	277.69	289.22	300.91	312.54	323.59	333.26	340.75	345.73
800	800	800	800	799.99	799.89	799.63	799.09	798.17	796.83	795.16	793.26	791.25	789.2	787.15	785.09	783.04	780.99	778.94	776.89	774.83	772.78	770.73	768.67	766.61	764.55	762.47	760.38	758.24	755.98	753.49	750.61	747.17	743.1	738.42	733.29	727.86	722.26	716.55	710.75	704.86	698.87	692.78	686.58	680.28	673.87	667.37	660.8	654.16	647.48	640.78	634.05	627.29	620.49	613.61	606.64	599.58	592.42	585.18	577.87	570.48	562.96	555.2	547.14	538.73	530.02	521.15	512.26	503.49	494.9	486.5	478.26	470.15	462.14	454.23	446.42	438.72	431.12	423.66	416.33	409.18	402.21	395.44	388.83	382.36	375.98	369.66	363.41	357.23	351.13	345.13	339.22	333.37	327.57	321.81	316.09	310.44	304.88	299.45	294.14	288.94	283.8	278.71	273.63	268.53	263.41	258.26	253.08	247.85	242.59	237.3	231.99	226.68	221.39	216.14	210.97	205.9	200.93	196.09	191.36	186.74	182.23	177.81	173.49	169.26	165.09	160.99	156.93	152.9	148.88	144.87	140.84	136.8	132.74	128.66	124.58	120.49	116.43	112.42	108.52	104.78	101.27	97.994	94.926	92.01	89.183	86.395	83.618	80.84	78.061	75.279	72.496	69.711	66.923	64.135	61.349	58.596	55.917	53.376	51.031	48.912	47.004	45.258	43.617	42.036	40.482	38.944	37.413	35.885	34.354	32.817	31.271	29.712	28.139	26.549	24.942	23.317	21.672	20.007	18.32	16.613	14.883	13.13	11.356	9.5603	7.7591	5.9967	4.3471	2.905	1.759	0.95004	0.45162	0.18741	0.069535	0.025721	0.0095331	0.0030329	0.00081037	9.891e-05	0	0	0	0	0	0	0	0	0	0	0	0	0	0	0	0	0	0	0	0	0	0	0	0	0	0	0	0	0	0	0	0	0	0	0	0	0	0	0	0	0	0	0	0	0	0	0	0	0	0	0	0	0.0065679	0.056089	0.21176	0.56411	1.2071	2.1967	3.5246	5.1273	6.9225	8.8373	10.817	12.837	14.883	16.946	19.021	21.1	23.181	25.26	27.332	29.395	31.444	33.475	35.483	37.462	39.404	41.299	43.131	44.902	46.744	48.95	51.949	56.225	62.101	69.586	78.395	88.18	98.701	109.83	121.57	133.91	146.77	160.01	173.49	187.11	200.77	214.3	227.52	240.22	252.29	263.77	274.88	285.89	297.07	308.26	318.99	328.49	335.94	340.95
800	800	800	800	799.98	799.88	799.6	799.03	798.07	796.71	795.02	793.12	791.1	789.05	786.99	784.94	782.89	780.83	778.78	776.72	774.67	772.61	770.56	768.5	766.43	764.36	762.27	760.15	757.97	755.67	753.11	750.15	746.65	742.51	737.78	732.59	727.12	721.47	715.74	709.92	704.01	698.01	691.91	685.72	679.43	673.04	666.58	660.04	653.46	646.84	640.2	633.54	626.84	620.07	613.22	606.26	599.18	591.98	584.67	577.27	569.76	562.11	554.23	546.05	537.54	528.77	519.86	510.99	502.27	493.76	485.46	477.33	469.31	461.38	453.53	445.76	438.07	430.47	422.99	415.64	408.47	401.51	394.77	388.22	381.8	375.48	369.21	363	356.86	350.8	344.84	338.96	333.14	327.36	321.62	315.92	310.29	304.75	299.33	294.02	288.82	283.7	278.62	273.55	268.48	263.4	258.28	253.13	247.93	242.69	237.42	232.12	226.83	221.57	216.37	211.24	206.22	201.3	196.5	191.8	187.2	182.7	178.3	173.99	169.76	165.6	161.51	157.45	153.43	149.41	145.4	141.39	137.36	133.32	129.27	125.22	121.18	117.15	113.18	109.29	105.55	102	98.674	95.558	92.602	89.746	86.94	84.15	81.363	78.576	75.788	73	70.211	67.421	64.629	61.839	59.076	56.38	53.809	51.422	49.251	47.288	45.49	43.802	42.179	40.588	39.016	37.455	35.898	34.342	32.781	31.211	29.63	28.036	26.426	24.8	23.155	21.491	19.806	18.101	16.374	14.624	12.85	11.052	9.231	7.4022	5.6188	3.9637	2.5423	1.4471	0.71058	0.28921	0.090719	0.019743	0.0037767	0.00064366	0	0	0	0	0	0	0	0	0	0	0	0	0	0	0	0	0	0	0	0	0	0	0	0	0	0	0	0	0	0	0	0	0	0	0	0	0	0	0	0	0	0	0	0	0	0	0	0	0	0	0	0	0	0	0	0.00324	0.036495	0.15268	0.43326	0.97244	1.8414	3.0564	4.5756	6.3248	8.2276	10.219	12.262	14.335	16.426	18.527	20.632	22.738	24.841	26.938	29.025	31.1	33.157	35.193	37.2	39.171	41.095	42.96	44.796	46.765	49.175	52.451	57.018	63.111	70.684	79.463	89.167	99.604	110.68	122.35	134.56	147.22	160.18	173.34	186.63	199.94	213.11	225.96	238.3	250.04	261.21	272.02	282.72	293.57	304.38	314.72	323.81	330.85	335.46
800	800	800	800	799.98	799.86	799.57	798.97	797.98	796.6	794.89	792.97	790.95	788.9	786.85	784.79	782.74	780.68	778.63	776.57	774.51	772.45	770.39	768.33	766.26	764.17	762.06	759.9	757.67	755.3	752.66	749.63	746.06	741.88	737.12	731.91	726.4	720.73	714.96	709.12	703.2	697.19	691.08	684.89	678.61	672.24	665.8	659.3	652.77	646.21	639.64	633.04	626.4	619.68	612.86	605.91	598.8	591.55	584.15	576.63	568.97	561.15	553.11	544.79	536.17	527.33	518.42	509.57	500.91	492.48	484.27	476.23	468.3	460.44	452.65	444.9	437.23	429.63	422.14	414.79	407.62	400.69	393.99	387.49	381.13	374.87	368.66	362.5	356.41	350.4	344.48	338.64	332.86	327.12	321.41	315.73	310.12	304.6	299.19	293.89	288.7	283.58	278.51	273.46	268.42	263.36	258.27	253.15	247.98	242.77	237.53	232.26	226.99	221.76	216.59	211.51	206.52	201.63	196.85	192.16	187.57	183.08	178.68	174.37	170.15	166	161.91	157.86	153.84	149.84	145.84	141.84	137.83	133.82	129.8	125.8	121.81	117.84	113.9	110.03	106.29	102.71	99.344	96.184	93.192	90.309	87.485	84.683	81.887	79.092	76.299	73.507	70.714	67.921	65.127	62.336	59.568	56.86	54.266	51.844	49.627	47.614	45.766	44.034	42.374	40.752	39.151	37.563	35.981	34.4	32.816	31.225	29.624	28.011	26.383	24.74	23.08	21.401	19.703	17.985	16.246	14.485	12.702	10.895	9.0657	7.2303	5.4445	3.7942	2.3886	1.3205	0.61862	0.23177	0.060699	0.0073374	0.00031411	0	0	0	0	0	0	0	0	0	0	0	0	0	0	0	0	0	0	0	0	0	0	0	0	0	0	0	0	0	0	0	0	0	0	0	0	0	0	0	0	0	0	0	0	0	0	0	0	0	0	0	0	0	0	0	0	0.0013849	0.022047	0.1042	0.31872	0.75717	1.5029	2.5974	4.0244	5.7225	7.613	9.6207	11.693	13.799	15.921	18.051	20.184	22.317	24.447	26.571	28.686	30.789	32.875	34.941	36.98	38.984	40.943	42.845	44.746	46.835	49.433	52.956	57.776	64.038	71.648	80.351	89.931	100.26	111.28	122.92	135.07	147.57	160.28	173.11	186.01	198.88	211.61	224.03	235.99	247.42	258.37	269	279.5	290.14	300.59	310.4	318.74	324.82	328.4
800	800	800	800	799.97	799.85	799.54	798.91	797.9	796.49	794.76	792.84	790.81	788.76	786.71	784.65	782.6	780.54	778.48	776.42	774.36	772.3	770.24	768.17	766.09	763.99	761.85	759.65	757.35	754.9	752.19	749.08	745.46	741.25	736.48	731.25	725.73	720.03	714.24	708.38	702.44	696.41	690.3	684.1	677.82	671.46	665.04	658.59	652.1	645.61	639.1	632.57	626	619.33	612.55	605.61	598.48	591.17	583.67	576.01	568.18	560.17	551.94	543.46	534.73	525.84	516.91	508.09	499.48	491.12	482.98	475.02	467.15	459.35	451.59	443.88	436.21	428.61	421.12	413.77	406.63	399.74	393.09	386.65	380.36	374.15	368	361.9	355.86	349.91	344.04	338.26	332.52	326.83	321.15	315.51	309.93	304.43	299.04	293.75	288.57	283.45	278.39	273.36	268.33	263.29	258.23	253.14	248.01	242.83	237.61	232.37	227.14	221.94	216.8	211.75	206.78	201.91	197.14	192.46	187.87	183.37	178.97	174.66	170.43	166.28	162.2	158.15	154.14	150.15	146.17	142.19	138.21	134.23	130.27	126.31	122.37	118.45	114.56	110.72	106.98	103.39	99.99	96.794	93.77	90.863	88.023	85.211	82.407	79.607	76.809	74.013	71.218	68.423	65.628	62.836	60.065	57.35	54.739	52.287	50.03	47.97	46.078	44.308	42.617	40.969	39.345	37.735	36.131	34.529	32.925	31.315	29.696	28.067	26.424	24.768	23.095	21.406	19.7	17.975	16.231	14.468	12.684	10.881	9.0595	7.2341	5.4585	3.8156	2.4117	1.3397	0.63086	0.23759	0.06244	0.0071384	0	0	0	0	0	0	0	0	0	0	0	0	0	0	0	0	0	0	0	0	0	0	0	0	0	0	0	0	0	0	0	0	0	0	0	0	0	0	0	0	0	0	0	0	0	0	0	0	0	0	0	0	0	0	0	0	0	0.00047371	0.011997	0.065883	0.22113	0.56402	1.1867	2.1548	3.4811	5.122	6.9989	9.0256	11.132	13.276	15.433	17.595	19.758	21.919	24.077	26.23	28.375	30.508	32.627	34.727	36.801	38.842	40.84	42.783	44.745	46.933	49.676	53.384	58.386	64.759	72.372	80.985	90.442	100.67	111.65	123.28	135.39	147.76	160.26	172.76	185.24	197.64	209.88	221.84	233.42	244.57	255.33	265.81	276.18	286.67	296.78	306.02	313.49	318.39	320.68
800	800	800	800	799.97	799.84	799.51	798.86	797.82	796.38	794.64	792.71	790.68	788.63	786.57	784.52	782.46	780.4	778.34	776.28	774.22	772.16	770.09	768.02	765.93	763.8	761.63	759.39	757.03	754.51	751.72	748.55	744.89	740.66	735.88	730.64	725.11	719.39	713.57	707.68	701.72	695.67	689.54	683.33	677.04	670.7	664.3	657.88	651.45	645.02	638.58	632.13	625.63	619.03	612.3	605.38	598.24	590.87	583.26	575.44	567.42	559.21	550.8	542.16	533.32	524.37	515.43	506.63	498.05	489.74	481.66	473.74	465.92	458.15	450.42	442.72	435.05	427.45	419.96	412.63	405.53	398.69	392.11	385.73	379.5	373.36	367.26	361.22	355.24	349.35	343.54	337.82	332.14	326.49	320.86	315.25	309.7	304.23	298.86	293.59	288.42	283.32	278.26	273.24	268.22	263.2	258.16	253.09	247.99	242.84	237.66	232.46	227.27	222.1	216.99	211.95	207	202.14	197.37	192.68	188.09	183.59	179.18	174.87	170.64	166.49	162.4	158.36	154.35	150.37	146.41	142.45	138.51	134.58	130.66	126.75	122.86	118.99	115.15	111.34	107.62	104.02	100.61	97.383	94.332	91.404	88.55	85.729	82.921	80.117	77.316	74.518	71.721	68.925	66.129	63.337	60.565	57.843	55.218	52.741	50.449	48.349	46.418	44.616	42.9	41.234	39.595	37.969	36.349	34.73	33.108	31.482	29.848	28.205	26.551	24.884	23.203	21.508	19.798	18.072	16.329	14.57	12.795	11.005	9.2005	7.3953	5.6351	3.9956	2.5762	1.4699	0.71772	0.2851	0.082689	0.012606	0.00024545	0	0	0	0	0	0	0	0	0	0	0	0	0	0	0	0	0	0	0	0	0	0	0	0	0	0	0	0	0	0	0	0	0	0	0	0	0	0	0	0	0	0	0	0	0	0	0	0	0	0	0	0	0	0	0	0	0.00010238	0.0056608	0.037665	0.1423	0.39857	0.90325	1.7434	2.962	4.5383	6.3975	8.4422	10.585	12.769	14.964	17.159	19.352	21.543	23.731	25.914	28.091	30.257	32.411	34.547	36.661	38.744	40.788	42.779	44.803	47.075	49.926	53.76	58.878	65.312	72.907	81.436	90.784	100.93	111.86	123.48	135.56	147.82	160.1	172.29	184.36	196.3	208.05	219.56	230.76	241.63	252.2	262.53	272.77	283.13	292.96	301.75	308.5	312.45	313.69
800	800	800	800	799.97	799.83	799.48	798.82	797.75	796.29	794.53	792.59	790.56	788.5	786.45	784.39	782.33	780.27	778.21	776.14	774.08	772.02	769.95	767.87	765.77	763.63	761.43	759.14	756.73	754.14	751.29	748.07	744.37	740.12	735.33	730.09	724.53	718.79	712.95	707.03	701.04	694.97	688.82	682.59	676.29	669.95	663.58	657.19	650.81	644.44	638.08	631.7	625.28	618.76	612.09	605.21	598.06	590.62	582.9	574.92	566.72	558.32	549.73	540.96	532.03	523.04	514.08	505.27	496.71	488.41	480.35	472.44	464.64	456.89	449.17	441.47	433.8	426.2	418.72	411.41	404.36	397.59	391.07	384.77	378.61	372.52	366.48	360.49	354.57	348.74	343	337.33	331.7	326.11	320.52	314.96	309.45	304.01	298.66	293.41	288.26	283.17	278.13	273.11	268.1	263.09	258.07	253.02	247.94	242.83	237.69	232.52	227.36	222.22	217.14	212.12	207.17	202.32	197.54	192.85	188.25	183.74	179.33	175.01	170.78	166.62	162.53	158.49	154.5	150.53	146.59	142.67	138.77	134.87	131	127.14	123.3	119.47	115.67	111.9	108.2	104.61	101.19	97.948	94.876	91.931	89.064	86.237	83.425	80.62	77.818	75.019	72.221	69.425	66.629	63.836	61.062	58.335	55.698	53.198	50.875	48.74	46.776	44.95	43.217	41.54	39.893	38.258	36.627	34.996	33.362	31.724	30.078	28.425	26.762	25.088	23.403	21.706	19.995	18.272	16.535	14.786	13.024	11.251	9.4701	7.6888	5.9432	4.2999	2.8493	1.6854	0.86291	0.3662	0.11863	0.023513	0.0013418	1.099e-06	0	0	0	0	0	0	0	0	0	0	0	0	0	0	0	0	0	0	0	0	0	0	0	0	0	0	0	0	0	0	0	0	0	0	0	0	0	0	0	0	0	0	0	0	0	0	0	0	0	0	0	0	0	0	0	3.3637e-06	0.0022128	0.018952	0.08338	0.26612	0.66449	1.3821	2.4909	3.9957	5.8295	7.8859	10.061	12.284	14.515	16.743	18.967	21.189	23.408	25.623	27.833	30.035	32.227	34.404	36.561	38.694	40.792	42.846	44.947	47.312	50.268	54.208	59.406	65.872	73.438	81.893	91.148	101.21	112.08	123.66	135.66	147.8	159.87	171.76	183.45	194.96	206.27	217.35	228.18	238.76	249.1	259.26	269.34	279.57	289.2	297.73	304.13	307.64	308.41
800	800	800	800	799.96	799.82	799.46	798.77	797.68	796.21	794.43	792.48	790.44	788.38	786.32	784.26	782.2	780.14	778.08	776.01	773.95	771.88	769.81	767.72	765.61	763.46	761.23	758.91	756.46	753.82	750.92	747.65	743.92	739.65	734.84	729.59	724.02	718.25	712.38	706.43	700.41	694.31	688.13	681.87	675.56	669.22	662.87	656.52	650.18	643.86	637.56	631.26	624.91	618.48	611.88	605.05	597.9	590.4	582.56	574.43	566.06	557.5	548.77	539.9	530.91	521.88	512.91	504.09	495.51	487.19	479.1	471.18	463.37	455.61	447.89	440.19	432.52	424.91	417.44	410.17	403.17	396.46	390.03	383.8	377.7	371.67	365.69	359.75	353.89	348.11	342.43	336.81	331.24	325.69	320.15	314.64	309.16	303.75	298.44	293.22	288.08	283.01	277.98	272.97	267.97	262.97	257.96	252.93	247.88	242.79	237.68	232.55	227.42	222.31	217.25	212.24	207.3	202.44	197.66	192.97	188.36	183.84	179.42	175.1	170.86	166.71	162.62	158.6	154.61	150.67	146.76	142.87	139	135.15	131.32	127.5	123.7	119.91	116.14	112.4	108.73	105.16	101.74	98.493	95.404	92.443	89.566	86.734	83.92	81.115	78.314	75.514	72.717	69.92	67.125	64.333	61.557	58.825	56.174	53.653	51.302	49.136	47.147	45.302	43.56	41.88	40.231	38.594	36.959	35.322	33.681	32.034	30.381	28.721	27.053	25.376	23.689	21.992	20.285	18.567	16.84	15.102	13.356	11.603	9.8443	8.0857	6.3514	4.6976	3.2057	1.9698	1.0592	0.48015	0.17223	0.042059	0.0045732	0.0001734	0	0	0	0	0	0	0	0	0	0	0	0	0	0	0	0	0	0	0	0	0	0	0	0	0	0	0	0	0	0	0	0	0	0	0	0	0	0	0	0	0	0	0	0	0	0	0	0	0	0	0	0	0	0	0	0	0.00066212	0.0080953	0.043489	0.16907	0.47937	1.0886	2.0929	3.522	5.3204	7.3764	9.5738	11.828	14.091	16.349	18.604	20.856	23.107	25.356	27.601	29.841	32.074	34.296	36.504	38.692	40.858	42.997	45.211	47.715	50.826	54.908	60.203	66.7	74.234	82.611	91.768	101.73	112.5	123.96	135.83	147.79	159.63	171.23	182.58	193.72	204.63	215.32	225.79	236.04	246.11	256.05	265.95	276.03	285.55	294.02	300.42	303.99	304.87
800	800	800	800	799.96	799.81	799.44	798.74	797.63	796.13	794.34	792.38	790.33	788.27	786.21	784.15	782.08	780.02	777.95	775.89	773.82	771.75	769.67	767.59	765.47	763.3	761.06	758.72	756.24	753.56	750.62	747.32	743.54	739.24	734.42	729.14	723.55	717.76	711.86	705.89	699.84	693.7	687.47	681.19	674.86	668.51	662.17	655.84	649.54	643.27	637.02	630.77	624.49	618.14	611.61	604.82	597.67	590.11	582.17	573.91	565.41	556.72	547.91	538.97	529.96	520.92	511.94	503.1	494.48	486.1	477.94	469.97	462.12	454.34	446.61	438.9	431.23	423.63	416.18	408.94	402	395.37	389.02	382.87	376.84	370.87	364.93	359.05	353.23	347.51	341.87	336.3	330.78	325.27	319.77	314.29	308.85	303.48	298.2	293.01	287.9	282.85	277.83	272.83	267.84	262.84	257.84	252.83	247.8	242.74	237.65	232.56	227.46	222.37	217.33	212.33	207.39	202.53	197.74	193.04	188.42	183.9	179.47	175.14	170.91	166.77	162.69	158.68	154.72	150.8	146.92	143.07	139.23	135.42	131.62	127.84	124.07	120.32	116.59	112.88	109.24	105.69	102.28	99.02	95.918	92.944	90.056	87.22	84.406	81.602	78.802	76.004	73.207	70.412	67.617	64.826	62.049	59.31	56.646	54.104	51.726	49.534	47.524	45.667	43.923	42.246	40.603	38.97	37.336	35.698	34.054	32.405	30.749	29.086	27.415	25.738	24.052	22.358	20.655	18.945	17.227	15.503	13.772	12.037	10.298	8.5587	6.8322	5.1645	3.6278	2.3147	1.3065	0.63149	0.24882	0.072121	0.011965	0.00092576	0	0	0	0	0	0	0	0	0	0	0	0	0	0	0	0	0	0	0	0	0	0	0	0	0	0	0	0	0	0	0	0	0	0	0	0	0	0	0	0	0	0	0	0	0	0	0	0	0	0	0	0	0	0	0	0	0.00010581	0.0027292	0.019533	0.10532	0.34978	0.8718	1.7845	3.1387	4.8919	6.9324	9.1363	11.411	13.697	15.982	18.265	20.548	22.831	25.114	27.397	29.677	31.954	34.225	36.488	38.74	40.985	43.24	45.618	48.338	51.696	56.006	61.456	68.007	75.504	83.785	92.814	102.62	113.23	124.5	136.14	147.86	159.44	170.76	181.81	192.61	203.18	213.51	223.61	233.52	243.29	252.98	262.67	272.6	282.07	290.6	297.23	301.19	302.54
800	800	800	800	799.96	799.8	799.42	798.7	797.57	796.05	794.25	792.28	790.23	788.16	786.1	784.03	781.97	779.9	777.83	775.76	773.69	771.62	769.55	767.45	765.33	763.16	760.91	758.56	756.07	753.37	750.41	747.06	743.25	738.91	734.05	728.75	723.13	717.33	711.41	705.4	699.31	693.14	686.87	680.55	674.2	667.84	661.49	655.17	648.89	642.64	636.42	630.21	623.99	617.68	611.21	604.44	597.29	589.69	581.67	573.32	564.73	555.98	547.12	538.17	529.16	520.14	511.16	502.3	493.61	485.14	476.89	468.82	460.91	453.09	445.34	437.64	429.98	422.4	414.98	407.79	400.92	394.37	388.1	382.02	376.06	370.14	364.26	358.42	352.65	346.97	341.37	335.84	330.34	324.86	319.39	313.94	308.53	303.19	297.95	292.79	287.71	282.67	277.67	272.68	267.7	262.71	257.72	252.72	247.71	242.67	237.61	232.54	227.47	222.41	217.37	212.38	207.45	202.58	197.79	193.07	188.44	183.91	179.48	175.16	170.93	166.8	162.75	158.76	154.83	150.94	147.09	143.27	139.48	135.7	131.93	128.18	124.44	120.72	117.02	113.35	109.73	106.2	102.79	99.531	96.42	93.433	90.537	87.696	84.882	82.08	79.282	76.486	73.692	70.898	68.106	65.316	62.538	59.793	57.115	54.551	52.147	49.93	47.903	46.041	44.301	42.634	41.001	39.377	37.75	36.116	34.474	32.825	31.169	29.507	27.837	26.161	24.478	22.789	21.093	19.391	17.683	15.97	14.253	12.533	10.81	9.0849	7.3644	5.6833	4.1047	2.7166	1.6078	0.82688	0.35522	0.11862	0.026241	0.0031081	4.9973e-05	0	0	0	0	0	0	0	0	0	0	0	0	0	0	0	0	0	0	0	0	0	0	0	0	0	0	0	0	0	0	0	0	0	0	0	0	0	0	0	0	0	0	0	0	0	0	0	0	0	0	0	0	0	0	0	0	0.0006534	0.0072569	0.068548	0.26875	0.72682	1.5652	2.8498	4.551	6.5619	8.7566	11.038	13.34	15.645	17.954	20.266	22.581	24.899	27.22	29.543	31.866	34.189	36.511	38.831	41.167	43.565	46.161	49.179	52.886	57.524	63.199	69.839	77.301	85.464	94.326	103.94	114.31	125.3	136.65	148.07	159.35	170.39	181.16	191.66	201.9	211.89	221.65	231.23	240.68	250.1	259.6	269.38	278.84	287.52	294.51	299.07	301.11
800	800	800	800	799.96	799.79	799.4	798.67	797.52	795.98	794.17	792.19	790.13	788.06	785.99	783.92	781.86	779.79	777.72	775.65	773.58	771.5	769.42	767.33	765.21	763.04	760.79	758.45	755.95	753.25	750.27	746.89	743.04	738.65	733.74	728.4	722.76	716.94	711	704.97	698.85	692.63	686.33	679.97	673.58	667.2	660.83	654.51	648.23	641.98	635.77	629.57	623.37	617.09	610.63	603.87	596.71	589.08	581.02	572.63	564.01	555.24	546.37	537.44	528.46	519.47	510.5	501.62	492.87	484.3	475.93	467.76	459.75	451.88	444.11	436.41	428.78	421.24	413.87	406.75	399.96	393.49	387.29	381.29	375.4	369.54	363.72	357.93	352.2	346.55	340.97	335.45	329.96	324.49	319.03	313.59	308.21	302.9	297.69	292.56	287.5	282.48	277.5	272.52	267.55	262.57	257.59	252.61	247.61	242.59	237.56	232.51	227.46	222.42	217.4	212.41	207.48	202.6	197.8	193.07	188.43	183.89	179.46	175.15	170.94	166.83	162.81	158.85	154.95	151.1	147.28	143.49	139.73	135.98	132.24	128.52	124.81	121.12	117.45	113.8	110.21	106.69	103.29	100.03	96.91	93.913	91.01	88.166	85.352	82.552	79.757	76.963	74.171	71.38	68.591	65.803	63.025	60.274	57.582	54.995	52.564	50.324	48.284	46.422	44.691	43.038	41.421	39.811	38.194	36.567	34.931	33.286	31.633	29.973	28.307	26.634	24.956	23.272	21.583	19.888	18.19	16.488	14.782	13.074	11.363	9.6486	7.9339	6.2433	4.6296	3.1733	1.9658	1.0722	0.49806	0.18674	0.050656	0.0081745	0.00037135	0	0	0	0	0	0	0	0	0	0	0	0	0	0	0	0	0	0	0	0	0	0	0	0	0	0	0	0	0	0	0	0	0	0	0	0	0	0	0	0	0	0	0	0	0	0	0	0	0	0	0	0	0	0	0	0	6.7934e-05	0.0020216	0.049605	0.22186	0.63492	1.4146	2.6365	4.2828	6.2549	8.4291	10.707	13.017	15.34	17.672	20.011	22.358	24.711	27.071	29.436	31.806	34.182	36.564	38.951	41.384	43.942	46.792	50.165	54.294	59.332	65.292	72.059	79.506	87.551	96.227	105.6	115.69	126.35	137.35	148.43	159.4	170.14	180.62	190.83	200.78	210.47	219.91	229.17	238.34	247.53	256.85	266.49	275.95	284.76	292.07	297.13	299.79
800	800	800	800	799.95	799.79	799.38	798.63	797.47	795.92	794.09	792.1	790.04	787.96	785.89	783.82	781.75	779.68	777.61	775.54	773.46	771.39	769.31	767.21	765.09	762.93	760.7	758.37	755.89	753.2	750.21	746.8	742.89	738.44	733.47	728.09	722.43	716.59	710.63	704.58	698.44	692.19	685.85	679.45	673.02	666.59	660.2	653.85	647.54	641.29	635.07	628.86	622.65	616.36	609.89	603.11	595.93	588.3	580.24	571.85	563.24	554.49	545.65	536.76	527.82	518.86	509.91	501.01	492.22	483.56	475.07	466.78	458.68	450.74	442.95	435.25	427.65	420.17	412.88	405.85	399.14	392.75	386.64	380.71	374.87	369.09	363.32	357.58	351.89	346.26	340.69	335.16	329.66	324.18	318.71	313.27	307.9	302.62	297.42	292.32	287.28	282.29	277.31	272.35	267.39	262.42	257.46	252.48	247.5	242.5	237.49	232.46	227.43	222.41	217.4	212.42	207.49	202.61	197.79	193.05	188.41	183.86	179.43	175.12	170.93	166.86	162.87	158.95	155.09	151.27	147.48	143.72	139.98	136.26	132.55	128.86	125.18	121.52	117.87	114.25	110.68	107.18	103.78	100.52	97.389	94.384	91.475	88.629	85.815	83.017	80.224	77.434	74.645	71.858	69.073	66.29	63.513	60.757	58.05	55.441	52.983	50.719	48.668	46.808	45.091	43.459	41.861	40.268	38.664	37.047	35.418	33.779	32.131	30.476	28.814	27.146	25.473	23.795	22.113	20.426	18.736	17.043	15.347	13.648	11.947	10.241	8.5337	6.8388	5.1984	3.6834	2.3824	1.3728	0.68443	0.28287	0.089556	0.018509	0.001571	0	0	0	0	0	0	0	0	0	0	0	0	0	0	0	0	0	0	0	0	0	0	0	0	0	0	0	0	0	0	0	0	0	0	0	0	0	0	0	0	0	0	0	0	0	0	0	0	0	0	0	0	0	0	0	0	0	0.00034262	0.039874	0.19297	0.57132	1.3007	2.4637	4.0542	5.9837	8.133	10.403	12.72	15.058	17.412	19.779	22.157	24.546	26.943	29.35	31.767	34.193	36.63	39.081	41.607	44.327	47.439	51.185	55.759	61.227	67.508	74.444	81.915	89.871	98.376	107.51	117.3	127.6	138.23	148.95	159.58	170.01	180.21	190.15	199.82	209.24	218.41	227.4	236.33	245.33	254.51	264.06	273.51	282.42	289.98	295.46	298.65
800	800	800	800	799.95	799.78	799.37	798.6	797.42	795.85	794.01	792.01	789.95	787.87	785.8	783.73	781.66	779.58	777.51	775.44	773.36	771.28	769.2	767.11	764.99	762.84	760.63	758.32	755.88	753.21	750.21	746.78	742.81	738.28	733.25	727.83	722.14	716.29	710.32	704.25	698.07	691.8	685.42	678.98	672.5	666.02	659.58	653.19	646.85	640.57	634.32	628.1	621.85	615.53	609.02	602.22	595.02	587.39	579.35	571	562.44	553.73	544.94	536.09	527.19	518.27	509.34	500.44	491.61	482.88	474.3	465.9	457.7	449.7	441.88	434.19	426.63	419.22	412.01	405.07	398.45	392.15	386.11	380.25	374.49	368.77	363.07	357.38	351.73	346.11	340.53	334.98	329.45	323.93	318.44	312.99	307.61	302.33	297.16	292.07	287.05	282.08	277.12	272.17	267.22	262.27	257.32	252.35	247.38	242.4	237.41	232.4	227.39	222.38	217.39	212.41	207.48	202.6	197.78	193.04	188.39	183.84	179.41	175.11	170.95	166.9	162.94	159.06	155.23	151.44	147.68	143.95	140.24	136.55	132.87	129.2	125.55	121.92	118.3	114.7	111.14	107.65	104.26	100.99	97.857	94.846	91.932	89.084	86.27	83.474	80.684	77.897	75.113	72.333	69.555	66.778	64.006	61.248	58.53	55.898	53.412	51.125	49.061	47.205	45.505	43.896	42.321	40.747	39.157	37.55	35.93	34.298	32.656	31.007	29.35	27.688	26.021	24.349	22.673	20.994	19.313	17.628	15.94	14.25	12.557	10.861	9.1616	7.4677	5.8092	4.2457	2.8593	1.7344	0.92257	0.41537	0.14924	0.037975	0.005134	0.00018262	0	0	0	0	0	0	0	0	0	0	0	0	0	0	0	0	0	0	0	0	0	0	0	0	0	0	0	0	0	0	0	0	0	0	0	0	0	0	0	0	0	0	0	0	0	0	0	0	0	0	0	0	0	0	0	0	0	0.033121	0.1692	0.5146	1.1938	2.2962	3.8285	5.714	7.8387	10.102	12.428	14.784	17.162	19.558	21.968	24.392	26.827	29.274	31.733	34.206	36.692	39.197	41.809	44.678	48.036	52.135	57.137	63.029	69.647	76.79	84.336	92.248	100.62	109.54	119.02	128.98	139.24	149.59	159.89	170.02	179.94	189.63	199.06	208.23	217.18	225.96	234.71	243.56	252.65	262.12	271.57	280.54	288.29	294.11	297.71
800	800	800	800	799.95	799.77	799.35	798.57	797.37	795.78	793.93	791.93	789.86	787.79	785.71	783.64	781.57	779.5	777.42	775.35	773.27	771.19	769.1	767.01	764.9	762.76	760.57	758.3	755.9	753.26	750.27	746.8	742.77	738.16	733.07	727.6	721.89	716.02	710.05	703.96	697.77	691.46	685.04	678.55	672.01	665.48	658.97	652.53	646.15	639.83	633.56	627.29	621.01	614.64	608.08	601.24	594.03	586.41	578.42	570.13	561.63	552.98	544.24	535.44	526.58	517.68	508.78	499.88	491.03	482.26	473.61	465.13	456.86	448.79	440.93	433.24	425.71	418.36	411.23	404.38	397.86	391.65	385.69	379.9	374.21	368.56	362.93	357.3	351.68	346.07	340.48	334.89	329.32	323.75	318.21	312.73	307.34	302.06	296.89	291.82	286.82	281.86	276.92	271.99	267.05	262.11	257.17	252.22	247.26	242.29	237.32	232.33	227.33	222.34	217.36	212.4	207.47	202.59	197.78	193.05	188.4	183.86	179.44	175.15	171	166.98	163.05	159.2	155.39	151.63	147.89	144.19	140.5	136.83	133.18	129.55	125.92	122.31	118.72	115.15	111.61	108.12	104.73	101.46	98.314	95.296	92.378	89.527	86.714	83.92	81.133	78.353	75.578	72.807	70.041	67.276	64.513	61.758	59.034	56.385	53.874	51.561	49.483	47.628	45.943	44.356	42.804	41.248	39.673	38.077	36.465	34.84	33.205	31.561	29.91	28.254	26.593	24.928	23.259	21.588	19.914	18.238	16.559	14.878	13.194	11.507	9.818	8.1297	6.4614	4.8604	3.3994	2.1643	1.2242	0.59703	0.24028	0.073521	0.014485	0.0014749	3.4195e-05	0	0	0	0	0	0	0	0	0	0	0	0	0	0	0	0	0	0	0	0	0	0	0	0	0	0	0	0	0	0	0	0	0	0	0	0	0	0	0	0	0	0	0	0	0	0	0	0	0	0	0	0	0	0	0	0	0.026352	0.14357	0.45201	1.0745	2.1086	3.5765	5.4157	7.5176	9.7787	12.12	14.499	16.905	19.332	21.776	24.235	26.707	29.192	31.69	34.203	36.731	39.282	41.968	44.968	48.542	52.953	58.338	64.621	71.573	78.95	86.617	94.535	102.81	111.54	120.75	130.38	140.29	150.31	160.3	170.16	179.85	189.32	198.55	207.52	216.28	224.89	233.5	242.24	251.26	260.65	270.1	279.13	287.03	293.09	297.01
800	800	800	800	799.95	799.76	799.33	798.53	797.32	795.72	793.86	791.85	789.79	787.71	785.64	783.57	781.5	779.42	777.35	775.27	773.19	771.1	769.02	766.93	764.82	762.69	760.53	758.3	755.93	753.33	750.35	746.85	742.76	738.07	732.91	727.41	721.68	715.81	709.83	703.73	697.51	691.17	684.71	678.17	671.57	664.96	658.38	651.88	645.45	639.09	632.77	626.47	620.15	613.72	607.12	600.24	593.02	585.42	577.48	569.26	560.82	552.24	543.55	534.79	525.96	517.09	508.21	499.32	490.47	481.69	473	464.48	456.15	448.03	440.13	432.42	424.9	417.58	410.51	403.75	397.32	391.19	385.32	379.61	374	368.43	362.87	357.29	351.7	346.1	340.48	334.86	329.23	323.61	318.03	312.5	307.08	301.79	296.62	291.56	286.57	281.63	276.71	271.8	266.88	261.95	257.02	252.08	247.13	242.18	237.21	232.24	227.26	222.29	217.32	212.38	207.47	202.61	197.82	193.1	188.48	183.95	179.54	175.27	171.13	167.12	163.2	159.36	155.57	151.82	148.11	144.42	140.76	137.13	133.5	129.89	126.3	122.71	119.14	115.59	112.06	108.59	105.19	101.91	98.758	95.731	92.807	89.954	87.142	84.352	81.573	78.803	76.041	73.287	70.538	67.791	65.046	62.303	59.582	56.925	54.395	52.059	49.962	48.101	46.423	44.85	43.316	41.777	40.213	38.627	37.023	35.404	33.774	32.136	30.491	28.841	27.186	25.528	23.867	22.204	20.538	18.87	17.201	15.529	13.856	12.18	10.503	8.8235	7.1532	5.5265	4.0046	2.6698	1.602	0.84389	0.37769	0.13622	0.03612	0.0064529	0.00070697	0	0	0	0	0	0	0	0	0	0	0	0	0	0	0	0	0	0	0	0	0	0	0	0	0	0	0	0	0	0	0	0	0	0	0	0	0	0	0	0	0	0	0	0	0	0	0	0	0	0	0	0	0	0	0	0	0.018938	0.11427	0.37972	0.93592	1.8901	3.2833	5.0705	7.1495	9.4127	11.775	14.184	16.623	19.085	21.564	24.059	26.567	29.088	31.622	34.17	36.734	39.326	42.078	45.189	48.943	53.613	59.319	65.945	73.212	80.839	88.664	96.634	104.85	113.42	122.39	131.73	141.33	151.06	160.8	170.45	179.96	189.26	198.32	207.14	215.73	224.2	232.68	241.32	250.23	259.54	268.93	277.95	285.94	292.21	296.41
800	800	800	800	799.94	799.75	799.31	798.5	797.27	795.66	793.8	791.79	789.72	787.65	785.58	783.51	781.44	779.36	777.28	775.2	773.12	771.04	768.95	766.85	764.75	762.63	760.49	758.29	755.96	753.39	750.42	746.9	742.75	738	732.79	727.26	721.52	715.66	709.68	703.57	697.33	690.95	684.44	677.83	671.15	664.46	657.81	651.24	644.75	638.35	632	625.66	619.28	612.81	606.17	599.26	592.02	584.45	576.56	568.4	560.04	551.52	542.88	534.15	525.35	516.5	507.63	498.77	489.93	481.15	472.47	463.93	455.57	447.41	439.47	431.72	424.17	416.86	409.83	403.13	396.78	390.76	384.98	379.37	373.84	368.35	362.86	357.33	351.77	346.17	340.54	334.87	329.19	323.51	317.86	312.29	306.83	301.51	296.34	291.29	286.32	281.4	276.5	271.61	266.7	261.79	256.87	251.94	247	242.06	237.11	232.15	227.19	222.23	217.29	212.37	207.49	202.66	197.91	193.22	188.63	184.13	179.74	175.47	171.34	167.32	163.41	159.56	155.77	152.03	148.33	144.67	141.03	137.42	133.83	130.24	126.67	123.11	119.56	116.02	112.51	109.04	105.64	102.35	99.183	96.145	93.215	90.36	87.551	84.768	82.001	79.248	76.506	73.775	71.051	68.332	65.613	62.896	60.193	57.543	55.007	52.653	50.535	48.655	46.968	45.395	43.868	42.338	40.783	39.203	37.604	35.99	34.365	32.731	31.092	29.448	27.8	26.149	24.496	22.84	21.183	19.525	17.865	16.204	14.542	12.878	11.213	9.5454	7.8801	6.2397	4.6733	3.2544	2.0669	1.1721	0.57902	0.2407	0.079831	0.020057	0.0036374	0.00031217	0	0	0	0	0	0	0	0	0	0	0	0	0	0	0	0	0	0	0	0	0	0	0	0	0	0	0	0	0	0	0	0	0	0	0	0	0	0	0	0	0	0	0	0	0	0	0	0	0	0	0	0	0	0	0	0.011916	0.083978	0.30236	0.78422	1.6463	2.9514	4.676	6.7277	8.9944	11.382	13.828	16.305	18.805	21.323	23.854	26.398	28.954	31.522	34.102	36.698	39.329	42.139	45.345	49.245	54.121	60.085	66.998	74.549	82.425	90.428	98.48	106.67	115.11	123.87	132.96	142.3	151.81	161.36	170.87	180.25	189.44	198.39	207.07	215.53	223.87	232.22	240.75	249.51	258.64	267.84	276.69	284.64	291.07	295.59
800	800	800	800	799.94	799.74	799.29	798.47	797.23	795.61	793.74	791.73	789.67	787.6	785.53	783.46	781.39	779.32	777.24	775.15	773.07	770.98	768.89	766.79	764.69	762.58	760.45	758.27	755.97	753.42	750.45	746.91	742.72	737.93	732.69	727.15	721.42	715.57	709.59	703.48	697.21	690.8	684.23	677.55	670.79	664.01	657.28	650.63	644.09	637.64	631.24	624.87	618.45	611.94	605.25	598.31	591.06	583.51	575.67	567.58	559.29	550.83	542.24	533.54	524.75	515.92	507.07	498.22	489.4	480.65	471.98	463.45	455.08	446.9	438.91	431.11	423.52	416.19	409.17	402.52	396.25	390.33	384.65	379.14	373.71	368.3	362.87	357.4	351.87	346.28	340.62	334.92	329.17	323.43	317.71	312.08	306.57	301.23	296.05	291	286.06	281.17	276.29	271.41	266.53	261.63	256.72	251.8	246.87	241.94	237	232.06	227.12	222.19	217.27	212.39	207.55	202.76	198.05	193.41	188.85	184.39	180.02	175.77	171.63	167.6	163.66	159.8	156	152.26	148.56	144.92	141.31	137.72	134.15	130.6	127.05	123.51	119.97	116.45	112.95	109.48	106.07	102.76	99.582	96.531	93.594	90.739	87.937	85.168	82.42	79.69	76.976	74.275	71.585	68.901	66.22	63.542	60.875	58.253	55.729	53.369	51.227	49.317	47.602	46.01	44.473	42.94	41.386	39.808	38.21	36.598	34.977	33.348	31.713	30.075	28.434	26.79	25.144	23.497	21.849	20.2	18.55	16.9	15.249	13.597	11.944	10.29	8.6345	6.9915	5.3975	3.9142	2.6218	1.5927	0.86005	0.40252	0.15747	0.049288	0.011626	0.0015898	1.1154e-05	0	0	0	0	0	0	0	0	0	0	0	0	0	0	0	0	0	0	0	0	0	0	0	0	0	0	0	0	0	0	0	0	0	0	0	0	0	0	0	0	0	0	0	0	0	0	0	0	0	0	0	0	0	0	0.0063733	0.056201	0.22674	0.6298	1.3898	2.5921	4.2399	6.2554	8.5239	10.94	13.428	15.949	18.491	21.049	23.619	26.199	28.79	31.39	34.001	36.628	39.298	42.16	45.445	49.461	54.495	60.656	67.797	75.589	83.693	91.875	100.03	108.22	116.56	125.15	134.02	143.17	152.51	161.95	171.38	180.7	189.82	198.69	207.27	215.62	223.82	232.04	240.47	249.02	257.83	266.62	275.07	282.79	289.35	294.29
800	800	800	800	799.94	799.73	799.27	798.44	797.19	795.57	793.7	791.7	789.63	787.57	785.5	783.43	781.36	779.28	777.2	775.12	773.03	770.94	768.85	766.75	764.65	762.53	760.41	758.24	755.94	753.4	750.42	746.87	742.67	737.87	732.62	727.08	721.37	715.53	709.57	703.46	697.18	690.71	684.09	677.32	670.47	663.6	656.79	650.07	643.47	636.98	630.55	624.13	617.68	611.13	604.39	597.42	590.16	582.62	574.82	566.8	558.58	550.18	541.63	532.96	524.19	515.37	506.52	497.69	488.9	480.17	471.53	463.02	454.65	446.46	438.43	430.58	422.94	415.57	408.55	401.94	395.75	389.92	384.35	378.95	373.61	368.28	362.92	357.5	352	346.41	340.74	334.99	329.18	323.37	317.58	311.88	306.32	300.94	295.75	290.72	285.8	280.93	276.08	271.22	266.35	261.47	256.57	251.67	246.75	241.83	236.91	231.98	227.07	222.16	217.28	212.44	207.64	202.9	198.23	193.64	189.12	184.69	180.36	176.11	171.97	167.91	163.95	160.06	156.25	152.5	148.81	145.18	141.59	138.03	134.49	130.95	127.42	123.9	120.38	116.86	113.36	109.88	106.47	103.14	99.945	96.882	93.94	91.089	88.301	85.552	82.83	80.131	77.451	74.788	72.138	69.498	66.865	64.238	61.625	59.051	56.559	54.208	52.048	50.099	48.338	46.707	45.142	43.592	42.029	40.445	38.845	37.233	35.612	33.986	32.356	30.723	29.088	27.451	25.813	24.174	22.534	20.894	19.254	17.614	15.974	14.333	12.693	11.051	9.4076	7.7701	6.1636	4.6365	3.2591	2.1066	1.23	0.63519	0.28198	0.10356	0.029667	0.0055994	0.00037442	0	0	0	0	0	0	0	0	0	0	0	0	0	0	0	0	0	0	0	0	0	0	0	0	0	0	0	0	0	0	0	0	0	0	0	0	0	0	0	0	0	0	0	0	0	0	0	0	0	0	0	0	0	0	0.0027742	0.033636	0.15899	0.48344	1.1355	2.2225	3.778	5.7452	8.0105	10.456	12.991	15.561	18.148	20.748	23.358	25.976	28.602	31.236	33.879	36.537	39.244	42.151	45.499	49.602	54.751	61.058	68.374	76.362	84.662	93.011	101.27	109.49	117.77	126.23	134.95	143.95	153.17	162.54	171.94	181.24	190.34	199.15	207.66	215.89	223.98	232.09	240.41	248.69	257.01	265.13	272.76	279.85	286.22	291.45
800	800	800	800	799.93	799.73	799.26	798.42	797.16	795.54	793.68	791.67	789.62	787.56	785.49	783.42	781.34	779.27	777.18	775.1	773.01	770.91	768.82	766.72	764.61	762.5	760.37	758.19	755.88	753.32	750.34	746.78	742.58	737.8	732.57	727.05	721.36	715.55	709.61	703.51	697.2	690.69	683.99	677.13	670.2	663.25	656.36	649.59	642.94	636.41	629.94	623.5	617.01	610.41	603.64	596.63	589.35	581.82	574.06	566.09	557.93	549.59	541.08	532.43	523.68	514.87	506.04	497.22	488.44	479.73	471.11	462.61	454.25	446.05	438	430.11	422.44	415.05	408.03	401.46	395.33	389.59	384.11	378.79	373.54	368.28	362.98	357.62	352.15	346.57	340.87	335.08	329.22	323.33	317.47	311.71	306.09	300.68	295.48	290.45	285.54	280.69	275.86	271.03	266.18	261.31	256.43	251.54	246.64	241.74	236.83	231.93	227.04	222.17	217.33	212.52	207.77	203.07	198.45	193.89	189.42	185.02	180.7	176.47	172.32	168.25	164.26	160.35	156.52	152.76	149.08	145.46	141.88	138.34	134.82	131.31	127.79	124.28	120.77	117.25	113.74	110.25	106.82	103.48	100.27	97.195	94.254	91.413	88.643	85.921	83.232	80.57	77.931	75.312	72.708	70.118	67.541	64.975	62.427	59.915	57.472	55.144	52.975	50.988	49.173	47.489	45.879	44.298	42.715	41.119	39.511	37.894	36.273	34.648	33.021	31.392	29.762	28.131	26.5	24.869	23.237	21.606	19.975	18.344	16.714	15.083	13.453	11.823	10.192	8.564	6.9561	5.4032	3.9622	2.7033	1.6877	0.94523	0.46312	0.19178	0.063575	0.014887	0.0016939	2.5332e-09	0	0	0	0	0	0	0	0	0	0	0	0	0	0	0	0	0	0	0	0	0	0	0	0	0	0	0	0	0	0	0	0	0	0	0	0	0	0	0	0	0	0	0	0	0	0	0	0	0	0	0	0	0	0.00089488	0.017534	0.10338	0.35441	0.8992	1.8637	3.3134	5.2186	7.4723	9.9445	12.527	15.15	17.786	20.431	23.081	25.738	28.401	31.071	33.747	36.437	39.177	42.12	45.513	49.677	54.909	61.325	68.778	76.922	85.385	93.879	102.25	110.51	118.77	127.15	135.76	144.64	153.79	163.12	172.51	181.82	190.91	199.68	208.12	216.27	224.26	232.27	240.48	248.45	256.13	263.29	269.73	275.74	281.54	286.81
800	800	800	800	799.93	799.72	799.25	798.41	797.15	795.54	793.67	791.67	789.62	787.56	785.49	783.42	781.34	779.26	777.18	775.09	773	770.9	768.8	766.7	764.59	762.47	760.33	758.13	755.79	753.2	750.2	746.65	742.48	737.72	732.53	727.05	721.39	715.61	709.69	703.58	697.26	690.69	683.91	676.97	669.95	662.94	656.01	649.19	642.51	635.95	629.45	622.98	616.46	609.82	603.01	595.97	588.67	581.14	573.41	565.48	557.36	549.07	540.6	531.98	523.26	514.46	505.65	496.84	488.07	479.36	470.74	462.24	453.87	445.66	437.61	429.72	422.05	414.66	407.66	401.13	395.05	389.37	383.96	378.71	373.51	368.31	363.07	357.76	352.32	346.74	341.02	335.18	329.26	323.31	317.39	311.57	305.91	300.46	295.24	290.21	285.31	280.48	275.67	270.85	266.02	261.18	256.31	251.44	246.56	241.68	236.79	231.92	227.06	222.22	217.41	212.64	207.92	203.27	198.68	194.16	189.71	185.33	181.03	176.81	172.66	168.58	164.58	160.65	156.8	153.04	149.35	145.74	142.18	138.65	135.15	131.65	128.15	124.64	121.13	117.61	114.08	110.57	107.12	103.77	100.55	97.472	94.537	91.712	88.967	86.278	83.627	81.009	78.416	75.845	73.292	70.758	68.239	65.739	63.26	60.816	58.43	56.136	53.968	51.951	50.084	48.341	46.679	45.057	43.444	41.829	40.208	38.584	36.959	35.333	33.708	32.082	30.456	28.831	27.206	25.581	23.956	22.333	20.71	19.087	17.466	15.844	14.223	12.603	10.982	9.3654	7.7623	6.1968	4.7112	3.3655	2.2232	1.332	0.70677	0.32187	0.11994	0.033207	0.0052938	0.0001657	0	0	0	0	0	0	0	0	0	0	0	0	0	0	0	0	0	0	0	0	0	0	0	0	0	0	0	0	0	0	0	0	0	0	0	0	0	0	0	0	0	0	0	0	0	0	0	0	0	0	0	0	0	0.00015309	0.0076586	0.061651	0.24886	0.69414	1.5368	2.8731	4.7038	6.9343	9.4256	12.052	14.729	17.415	20.105	22.799	25.497	28.199	30.906	33.618	36.341	39.11	42.081	45.506	49.712	55.005	61.507	69.068	77.338	85.929	94.543	103	111.32	119.58	127.92	136.46	145.26	154.35	163.64	173.03	182.33	191.42	200.17	208.55	216.64	224.56	232.5	240.6	248.25	255.23	261.29	266.27	270.81	275.53	280.28
800	800	800	800	799.93	799.72	799.26	798.42	797.17	795.55	793.69	791.69	789.64	787.58	785.51	783.44	781.36	779.27	777.19	775.09	773	770.9	768.8	766.7	764.59	762.46	760.3	758.07	755.7	753.07	750.05	746.5	742.36	737.66	732.5	727.05	721.43	715.67	709.76	703.66	697.3	690.68	683.82	676.8	669.72	662.66	655.7	648.87	642.18	635.59	629.08	622.58	616.03	609.36	602.51	595.44	588.14	580.61	572.88	564.97	556.9	548.64	540.21	531.64	522.95	514.19	505.39	496.59	487.81	479.08	470.43	461.9	453.53	445.32	437.29	429.43	421.79	414.45	407.5	401	394.96	389.31	383.92	378.7	373.53	368.37	363.17	357.89	352.48	346.9	341.16	335.28	329.32	323.31	317.34	311.47	305.77	300.3	295.06	290.02	285.12	280.3	275.51	270.71	265.9	261.07	256.23	251.37	246.52	241.65	236.8	231.95	227.11	222.3	217.52	212.78	208.1	203.47	198.9	194.41	189.98	185.62	181.33	177.12	172.97	168.89	164.88	160.95	157.1	153.33	149.64	146.02	142.46	138.94	135.45	131.97	128.48	124.98	121.46	117.92	114.37	110.85	107.38	104.01	100.79	97.719	94.796	91.993	89.278	86.625	84.018	81.447	78.905	76.386	73.888	71.41	68.952	66.515	64.103	61.725	59.396	57.14	54.984	52.948	51.038	49.241	47.524	45.856	44.209	42.57	40.934	39.3	37.669	36.041	34.415	32.791	31.169	29.548	27.928	26.309	24.691	23.074	21.458	19.842	18.228	16.614	15.001	13.389	11.778	10.17	8.5742	7.0042	5.4891	4.0756	2.8234	1.7907	1.0162	0.50136	0.2064	0.065838	0.013648	0.0010748	0	0	0	0	0	0	0	0	0	0	0	0	0	0	0	0	0	0	0	0	0	0	0	0	0	0	0	0	0	0	0	0	0	0	0	0	0	0	0	0	0	0	0	0	0	0	0	0	0	0	0	0	0	0	0.0026755	0.033299	0.16931	0.52924	1.26	2.4833	4.2308	6.4249	8.9228	11.584	14.31	17.045	19.781	22.519	25.259	28.003	30.75	33.5	36.259	39.057	42.055	45.506	49.746	55.088	61.659	69.306	77.669	86.355	95.057	103.59	111.95	120.22	128.55	137.04	145.78	154.81	164.07	173.42	182.71	191.78	200.5	208.86	216.9	224.79	232.7	240.67	248.01	254.32	259.28	262.77	265.65	268.83	272.42
800	800	800	800	799.93	799.73	799.27	798.44	797.2	795.59	793.74	791.74	789.68	787.61	785.54	783.47	781.38	779.3	777.21	775.11	773.02	770.92	768.82	766.71	764.6	762.46	760.28	758.02	755.61	752.95	749.91	746.38	742.27	737.61	732.49	727.07	721.46	715.71	709.81	703.69	697.29	690.61	683.68	676.6	669.47	662.39	655.43	648.6	641.9	635.31	628.78	622.27	615.69	609	602.13	595.05	587.74	580.21	572.48	564.58	556.52	548.3	539.91	531.39	522.75	514.04	505.28	496.48	487.69	478.92	470.23	461.65	453.25	445.05	437.05	429.25	421.69	414.42	407.53	401.07	395.05	389.39	383.99	378.76	373.59	368.45	363.27	358	352.6	347.02	341.26	335.35	329.35	323.31	317.31	311.42	305.7	300.2	294.95	289.9	285	280.18	275.39	270.61	265.82	261.01	256.19	251.36	246.53	241.69	236.85	232.02	227.21	222.42	217.66	212.94	208.27	203.67	199.12	194.64	190.22	185.88	181.6	177.39	173.25	169.18	165.17	161.24	157.38	153.61	149.91	146.29	142.73	139.22	135.73	132.26	128.78	125.27	121.75	118.19	114.62	111.07	107.59	104.22	101	97.94	95.036	92.259	89.579	86.968	84.409	81.889	79.4	76.936	74.494	72.072	69.672	67.293	64.941	62.622	60.345	58.127	55.987	53.943	52.002	50.158	48.391	46.677	44.995	43.331	41.679	40.035	38.398	36.767	35.14	33.517	31.897	30.279	28.664	27.05	25.437	23.826	22.216	20.607	18.999	17.392	15.785	14.18	12.577	10.978	9.3891	7.8187	6.2846	4.8199	3.4764	2.3152	1.3925	0.73644	0.33046	0.11871	0.030102	0.0038336	6.6584e-05	0	0	0	0	0	0	0	0	0	0	0	0	0	0	0	0	0	0	0	0	0	0	0	0	0	0	0	0	0	0	0	0	0	0	0	0	0	0	0	0	0	0	0	0	0	0	0	0	0	0	0	0	0	0.00060867	0.015773	0.11411	0.40672	1.0427	2.1621	3.8236	5.9688	8.4574	11.14	13.905	16.684	19.465	22.248	25.033	27.82	30.61	33.402	36.2	39.034	42.067	45.553	49.831	55.218	61.841	69.543	77.96	86.697	95.448	104.02	112.41	120.71	129.02	137.49	146.18	155.15	164.35	173.65	182.89	191.92	200.62	208.96	217	224.89	232.8	240.62	247.68	253.4	257.38	259.57	260.89	262.42	264.51
800	800	800	800	799.94	799.74	799.3	798.49	797.26	795.66	793.8	791.8	789.74	787.67	785.59	783.51	781.43	779.34	777.24	775.15	773.05	770.95	768.85	766.74	764.62	762.48	760.28	757.99	755.55	752.86	749.81	746.28	742.2	737.57	732.49	727.09	721.48	715.73	709.81	703.66	697.22	690.47	683.48	676.35	669.2	662.12	655.16	648.34	641.66	635.07	628.54	622.01	615.42	608.72	601.84	594.75	587.44	579.91	572.18	564.28	556.23	548.03	539.69	531.23	522.66	514	505.28	496.51	487.7	478.89	470.14	461.51	453.08	444.88	436.92	429.2	421.72	414.54	407.72	401.3	395.27	389.58	384.14	378.87	373.68	368.53	363.34	358.08	352.67	347.08	341.31	335.38	329.36	323.3	317.29	311.39	305.67	300.16	294.9	289.84	284.93	280.11	275.33	270.57	265.79	261.01	256.22	251.41	246.6	241.78	236.96	232.15	227.35	222.56	217.82	213.11	208.45	203.85	199.32	194.85	190.44	186.1	181.84	177.64	173.51	169.44	165.44	161.51	157.66	153.88	150.18	146.56	142.99	139.48	135.99	132.52	129.04	125.54	122	118.43	114.84	111.27	107.77	104.4	101.18	98.141	95.261	92.516	89.875	87.311	84.802	82.337	79.903	77.495	75.108	72.74	70.393	68.068	65.768	63.497	61.264	59.08	56.958	54.912	52.949	51.067	49.256	47.501	45.786	44.1	42.433	40.78	39.138	37.504	35.877	34.254	32.637	31.022	29.41	27.801	26.194	24.588	22.983	21.38	19.778	18.176	16.576	14.977	13.381	11.79	10.207	8.6376	7.0917	5.5898	4.1733	2.9006	1.8377	1.0352	0.50275	0.20113	0.060747	0.011285	0.00086964	3.5717e-08	0	0	0	0	0	0	0	0	0	0	0	0	0	0	0	0	0	0	0	0	0	0	0	0	0	0	0	0	0	0	0	0	0	0	0	0	0	0	0	0	0	0	0	0	0	0	0	0	0	0	0	0	0	0.0062827	0.079416	0.32308	0.88441	1.9141	3.4916	5.5783	8.0419	10.729	13.522	16.34	19.164	21.991	24.822	27.655	30.49	33.328	36.172	39.054	42.14	45.681	50.014	55.45	62.106	69.825	78.247	86.985	95.741	104.33	112.73	121.04	129.36	137.8	146.45	155.36	164.47	173.68	182.85	191.81	200.48	208.82	216.89	224.81	232.73	240.4	247.18	252.42	255.64	256.86	257.03	257.24	257.97
